ply
format ascii 1.0
comment Version 2, Copyright 2017, 8i Labs, Inc.
comment frame_to_world_scale 0.179523
comment frame_to_world_translation -45.2095 7.18301 -54.3561
comment width 1023
element vertex 113
property float x
property float y
property float z
property uchar red
property uchar green
property uchar blue
end_header
173 422 192 96 118 141
173 423 192 97 120 145
173 423 193 95 120 148
173 423 194 90 118 148
174 421 192 92 113 136
174 421 193 91 115 138
175 420 192 78 95 112
175 420 193 76 96 115
175 421 192 88 106 125
175 421 193 89 109 129
174 421 194 94 117 140
174 421 195 91 115 138
175 420 194 77 97 116
175 420 195 79 100 120
175 421 194 88 109 129
175 421 195 87 109 130
174 422 192 94 118 141
174 422 193 93 119 144
174 423 193 95 121 147
174 422 194 92 119 144
174 422 195 84 113 140
174 423 194 90 117 148
174 423 195 85 110 144
175 420 196 79 103 124
175 420 197 68 94 116
175 421 196 85 108 132
175 421 197 69 98 125
175 420 198 61 91 117
175 421 198 57 93 128
175 421 199 66 96 131
174 422 196 79 109 138
174 422 197 74 104 136
174 423 196 77 106 141
174 423 197 76 104 139
175 422 197 63 96 130
174 423 198 68 101 140
175 422 198 60 95 137
175 422 199 66 98 140
175 423 198 67 98 144
175 423 199 63 98 144
175 421 200 80 105 139
175 421 201 93 116 142
175 421 202 101 120 144
175 422 200 70 100 139
175 422 201 88 112 140
175 423 200 59 94 138
175 423 201 89 113 142
175 422 202 116 130 149
175 422 203 129 138 154
175 423 202 117 131 148
175 423 203 124 134 150
175 423 204 128 137 151
173 424 192 99 120 147
173 424 193 98 121 149
173 425 192 101 121 148
173 425 193 101 121 149
173 424 194 94 120 149
173 426 192 100 120 147
173 426 193 103 121 149
174 424 194 96 121 150
174 424 195 92 117 149
174 425 194 101 123 151
174 425 195 95 120 150
174 426 192 101 120 147
174 426 193 107 124 152
174 427 192 105 124 151
174 427 193 105 123 151
175 427 193 104 122 151
174 426 194 106 125 155
174 426 195 97 120 151
174 427 194 103 123 153
174 427 195 98 121 152
175 427 194 99 120 150
175 427 195 95 118 150
174 424 196 81 103 142
174 424 197 72 98 137
174 425 196 77 101 140
174 425 197 59 87 131
175 425 197 57 84 132
174 424 198 73 102 145
174 425 198 72 99 143
175 424 199 67 101 148
175 425 198 76 103 146
175 425 199 72 104 149
174 426 196 83 108 145
175 426 196 82 107 144
175 426 197 57 85 131
175 427 196 85 111 147
175 427 197 62 89 131
175 426 198 78 104 145
175 426 199 77 107 150
175 427 198 82 107 145
175 427 199 82 109 150
174 428 192 108 127 153
175 428 192 106 125 152
175 428 193 101 121 150
175 429 192 103 123 151
175 429 193 98 120 149
175 428 194 93 115 147
175 428 195 92 115 148
175 430 192 102 125 152
175 428 196 90 115 148
175 424 200 62 97 143
175 424 201 89 112 144
175 425 200 69 101 147
175 425 201 91 113 145
175 424 202 115 129 148
175 424 203 121 133 149
175 425 202 113 126 146
175 425 203 121 131 148
175 426 200 74 103 148
175 426 201 85 109 146
175 424 204 126 136 151
