ply
format ascii 1.0
comment Version 2, Copyright 2017, 8i Labs, Inc.
comment frame_to_world_scale 0.179523
comment frame_to_world_translation -45.2095 7.18301 -54.3561
comment width 1023
element vertex 160
property float x
property float y
property float z
property uchar red
property uchar green
property uchar blue
end_header
163 479 61 130 136 147
162 479 63 130 137 147
163 478 63 133 138 147
163 479 62 129 136 147
163 479 63 129 136 146
167 473 63 105 122 141
166 475 63 116 128 142
167 474 62 125 135 148
167 474 63 115 128 143
167 475 62 125 134 146
165 479 59 121 128 139
166 478 59 110 123 138
166 479 59 122 129 139
167 478 59 110 123 138
167 479 58 119 127 138
167 479 59 119 128 141
165 477 61 123 131 143
165 476 63 121 131 144
165 477 62 124 132 144
165 477 63 125 133 145
164 479 60 124 132 143
164 479 61 130 137 147
165 478 60 121 130 143
165 478 61 125 132 143
165 479 60 124 131 142
165 479 61 126 133 143
164 478 62 129 135 146
164 478 63 130 136 147
164 479 62 129 136 147
165 478 62 128 135 145
166 476 61 118 127 140
166 477 60 117 126 139
166 477 61 120 129 141
167 476 61 119 128 139
167 477 60 110 123 139
167 477 61 111 123 137
166 476 62 119 129 142
166 476 63 119 129 143
166 477 62 121 130 142
166 477 63 121 130 142
167 476 62 119 128 141
166 478 60 112 124 138
166 478 61 121 129 140
166 479 60 110 122 138
169 471 63 66 98 127
170 471 63 67 99 127
171 471 62 74 103 128
171 471 63 66 100 128
172 470 63 68 101 128
172 471 62 75 103 128
172 471 63 68 99 127
173 470 62 60 97 125
173 470 63 68 101 127
173 471 62 74 103 127
174 469 63 65 100 128
175 469 63 64 103 132
174 471 61 85 107 128
175 471 61 86 107 127
174 470 62 59 94 122
174 470 63 60 97 125
174 471 62 70 99 124
175 470 62 60 96 124
175 470 63 61 97 126
175 471 62 68 98 123
171 475 59 121 127 136
168 472 63 82 110 134
168 473 62 120 132 146
168 473 63 104 122 140
169 472 62 88 113 136
169 472 63 81 108 132
169 473 62 115 129 144
168 474 61 128 136 148
168 475 60 123 129 138
168 475 61 122 129 139
169 474 61 129 136 147
169 475 60 123 129 139
169 475 61 126 132 141
168 474 62 126 135 148
168 475 62 129 137 147
169 474 62 128 136 148
170 473 61 115 126 140
171 472 61 92 111 130
171 473 61 114 124 137
170 472 62 85 109 132
170 473 62 115 127 141
171 472 62 88 110 131
170 474 61 128 135 144
170 475 60 126 131 140
171 474 60 131 135 143
171 475 60 125 130 138
168 477 59 112 123 138
169 476 59 117 126 138
169 477 59 114 125 138
169 479 57 117 122 130
168 478 58 109 122 136
168 478 59 108 121 136
168 479 58 114 124 136
169 478 58 110 122 136
169 478 59 110 123 138
169 479 58 116 124 134
170 476 59 118 126 137
170 477 58 119 128 141
170 477 59 117 127 139
171 476 58 125 130 139
171 476 59 123 129 138
171 477 58 122 129 140
170 479 57 124 128 135
171 478 57 129 133 140
171 479 57 131 133 139
170 478 58 119 129 141
170 479 58 122 129 140
171 478 58 124 131 141
168 476 60 123 130 141
168 477 60 115 125 138
169 476 60 123 129 139
172 475 59 128 130 136
173 474 59 130 133 140
173 475 59 130 133 138
174 474 59 129 133 141
174 475 58 134 134 137
174 475 59 133 134 138
175 474 59 127 131 138
175 475 59 132 133 138
172 472 61 91 110 130
172 473 60 127 134 144
172 473 61 101 117 133
173 472 61 88 110 131
173 473 60 95 115 133
173 473 61 92 112 130
172 472 62 86 109 131
173 472 62 86 111 133
172 474 60 124 130 140
173 474 60 121 129 141
174 472 61 89 109 129
174 473 60 94 113 131
175 472 61 92 109 127
175 473 60 99 113 129
174 474 60 115 124 136
175 474 60 120 126 136
172 477 57 130 132 137
172 476 58 132 133 138
172 476 59 130 131 136
172 477 58 128 132 139
173 476 58 134 134 137
173 476 59 134 133 137
173 477 58 132 133 137
172 478 57 127 130 137
172 479 57 132 133 137
173 478 57 131 132 136
173 479 57 132 132 136
174 477 57 129 131 135
175 477 57 132 131 135
174 476 58 133 132 135
174 477 58 130 130 135
175 476 58 133 132 135
175 477 58 131 130 133
174 478 57 132 132 137
174 479 57 137 136 140
175 478 57 134 133 136
175 479 57 135 134 137
