ply
format ascii 1.0
comment Version 2, Copyright 2017, 8i Labs, Inc.
comment frame_to_world_scale 0.179523
comment frame_to_world_translation -45.2095 7.18301 -54.3561
comment width 1023
element vertex 324
property float x
property float y
property float z
property uchar red
property uchar green
property uchar blue
end_header
160 479 128 81 68 57
161 479 128 80 68 58
167 479 133 67 84 101
167 479 134 64 79 98
167 479 135 46 64 85
163 479 143 59 75 93
167 475 141 58 65 74
166 475 143 52 59 67
167 474 143 57 62 70
167 475 142 51 62 73
167 475 143 50 59 68
165 478 139 51 64 79
165 479 139 59 68 80
167 477 137 59 64 69
166 477 139 47 61 75
167 476 139 48 58 69
167 477 138 59 69 80
167 477 139 50 63 77
166 479 136 42 63 87
166 479 137 60 69 87
167 478 137 60 68 81
167 479 136 52 69 88
167 479 137 60 72 89
166 478 138 69 73 79
166 478 139 53 64 75
166 479 138 74 74 78
166 479 139 60 66 73
167 478 138 66 73 83
167 479 138 73 73 77
165 477 141 40 49 60
164 477 143 59 71 84
165 476 143 59 66 75
165 477 142 44 52 63
165 477 143 55 64 73
164 479 140 51 63 76
164 479 141 47 60 73
165 478 140 45 60 75
165 478 141 39 50 61
165 479 140 52 63 76
165 479 141 42 57 72
164 478 142 44 57 70
164 478 143 52 64 75
164 479 142 52 62 74
164 479 143 53 69 87
165 478 142 42 52 63
166 476 141 48 59 71
166 477 140 42 57 71
166 477 141 43 54 66
167 476 140 54 63 74
167 476 141 56 65 76
166 476 142 45 55 66
166 476 143 52 60 70
166 477 142 45 51 61
167 476 142 47 56 65
166 478 140 47 61 74
174 467 129 61 74 91
175 466 128 46 62 78
175 466 129 60 70 84
175 467 128 54 71 88
175 467 129 60 72 88
174 467 130 63 76 92
174 467 131 71 84 101
175 466 130 65 77 90
175 466 131 67 80 93
175 467 130 63 76 91
175 467 131 74 86 101
175 465 133 101 108 119
174 467 132 86 97 113
174 467 133 72 89 108
175 466 132 92 100 112
175 466 133 93 103 116
175 467 132 88 98 113
175 467 133 83 96 113
175 466 134 81 94 109
175 467 134 78 93 110
175 467 135 92 101 114
173 469 130 57 83 106
173 469 131 65 84 105
173 470 129 57 82 105
173 471 128 56 81 106
173 471 129 50 78 103
172 471 131 68 87 107
173 470 130 57 82 105
173 470 131 60 83 104
173 471 130 56 81 104
173 471 131 70 88 108
174 468 128 65 80 98
174 468 129 60 77 98
174 469 128 67 85 105
174 469 129 62 85 107
174 468 130 63 81 101
174 468 131 73 87 106
174 469 130 62 84 107
174 469 131 68 86 107
174 470 128 63 84 106
174 470 129 60 84 107
173 469 132 59 81 104
173 469 133 64 84 103
173 469 134 69 86 104
172 470 133 80 90 103
172 471 132 79 91 105
172 471 133 80 88 99
173 470 132 67 85 103
173 470 133 74 89 105
172 470 134 74 88 103
172 471 134 72 83 97
172 471 135 64 78 94
173 470 134 70 86 102
173 470 135 67 83 98
174 468 132 72 89 110
174 468 133 62 83 105
174 469 133 60 82 104
174 468 134 71 88 107
174 469 134 71 87 105
174 469 135 75 88 105
175 468 134 79 94 111
175 468 135 77 89 106
175 469 135 72 86 104
174 470 135 73 86 102
170 471 143 58 64 73
171 471 142 56 64 76
171 471 143 58 66 75
172 471 136 63 76 91
172 471 137 83 90 102
173 470 136 65 79 93
173 470 137 73 83 94
173 471 136 63 77 91
173 471 137 84 91 103
173 471 138 84 91 101
173 471 139 78 83 91
174 469 136 65 78 94
175 469 136 54 70 93
175 469 137 50 65 90
174 470 136 66 79 92
174 470 137 67 78 92
175 470 137 65 77 101
174 470 138 70 80 91
174 470 139 69 77 92
174 471 138 80 88 97
174 471 139 77 83 92
175 470 138 67 80 98
175 470 139 61 74 95
175 471 138 69 80 97
173 471 140 70 76 84
173 471 141 60 68 77
172 470 143 58 65 74
172 471 142 56 64 75
172 471 143 59 66 74
173 470 142 55 64 74
173 470 143 58 65 74
173 471 142 56 64 75
173 471 143 57 65 75
175 469 143 59 67 78
174 470 140 62 71 86
174 470 141 56 66 80
174 471 140 69 76 86
174 471 141 59 68 80
175 470 140 58 69 86
175 470 141 55 66 81
174 470 142 56 64 76
174 470 143 57 65 75
175 470 142 57 66 78
175 470 143 58 66 78
171 473 131 75 89 111
171 475 129 70 85 106
170 475 131 82 92 112
171 474 130 83 96 113
171 474 131 82 93 114
171 475 130 77 91 110
171 475 131 79 91 112
169 475 135 70 70 84
171 472 132 83 89 100
171 472 133 83 87 95
171 473 132 78 90 110
171 473 133 79 86 103
171 472 134 75 77 84
171 472 135 78 85 94
171 473 134 74 78 87
171 473 135 71 78 87
170 474 133 100 100 112
170 475 132 81 91 110
170 475 133 90 92 105
171 474 132 87 94 113
171 474 133 89 94 109
171 475 132 75 90 114
170 474 134 86 86 96
170 474 135 70 76 87
170 475 134 92 88 95
170 475 135 78 75 86
171 474 134 84 84 95
169 479 129 92 104 119
168 479 131 77 91 109
169 479 130 89 101 119
169 479 131 90 102 120
170 477 129 89 101 115
171 476 128 65 83 101
171 476 129 69 85 104
171 477 128 75 90 107
171 477 129 77 92 109
170 476 131 70 87 105
170 477 130 78 94 112
170 477 131 72 92 111
171 476 130 66 84 105
171 476 131 70 85 104
171 477 130 79 94 111
170 478 128 101 108 119
170 478 129 95 103 115
170 479 128 92 101 113
170 479 129 98 107 119
171 478 128 93 103 115
170 478 130 94 104 117
170 478 131 84 99 115
169 477 132 72 92 110
169 477 133 62 78 97
168 477 135 76 84 100
169 476 134 72 74 87
169 476 135 73 72 86
169 477 134 66 75 92
169 477 135 62 71 89
168 478 133 69 85 102
168 479 132 81 95 112
168 479 133 72 89 107
169 478 132 82 96 112
169 478 133 72 89 106
169 479 132 87 100 118
168 478 134 70 76 89
168 478 135 62 72 89
168 479 134 63 76 93
168 479 135 63 75 91
169 478 134 72 77 90
170 476 132 68 82 100
170 476 133 77 82 93
170 477 132 66 85 104
170 476 134 85 81 89
172 472 129 64 85 108
172 473 128 80 97 115
172 473 129 74 93 112
173 472 128 74 93 114
173 472 129 63 85 108
173 473 128 80 96 114
172 472 130 56 80 104
172 472 131 60 81 103
172 473 130 70 89 109
172 473 131 62 80 104
173 472 130 56 80 104
172 474 128 87 100 114
172 474 129 87 100 115
172 475 128 73 87 105
172 475 129 80 92 110
172 474 130 85 98 113
172 472 132 75 87 102
172 472 133 77 83 94
172 472 134 65 74 85
172 472 135 73 82 95
172 476 128 63 82 102
169 475 136 67 80 95
169 475 137 74 77 86
168 475 138 58 69 80
168 475 139 53 66 78
169 474 139 60 69 80
169 475 138 61 70 82
169 475 139 55 67 78
170 473 136 74 79 93
170 473 137 82 86 99
171 472 136 79 87 97
171 472 137 86 92 101
171 473 136 77 84 95
171 473 137 87 92 101
170 473 138 79 82 90
170 473 139 71 76 86
171 472 139 75 79 89
171 473 138 79 83 93
171 473 139 72 76 90
170 474 136 67 75 91
170 474 137 75 77 92
170 475 136 61 75 90
170 474 138 73 77 88
170 474 139 65 73 83
168 473 143 55 61 69
169 472 143 55 62 70
169 473 142 55 63 73
169 473 143 54 62 70
168 474 141 58 66 75
168 475 140 61 68 77
168 475 141 59 67 76
169 474 140 61 69 79
169 474 141 61 68 77
169 475 140 58 67 78
168 474 142 54 62 72
168 474 143 54 61 69
169 474 142 55 63 73
170 473 140 71 78 88
170 473 141 61 68 78
171 472 140 70 75 85
171 472 141 61 69 80
171 473 140 68 74 84
171 473 141 62 70 79
170 472 142 53 62 71
170 472 143 56 63 73
170 473 142 55 64 73
171 472 142 55 63 75
171 472 143 56 64 74
170 474 140 62 70 80
170 474 141 65 71 82
168 476 137 66 73 84
168 477 136 72 83 99
168 477 137 66 71 78
169 476 136 70 81 95
169 476 137 58 62 71
169 477 136 63 76 95
169 477 137 67 76 89
168 476 138 56 68 81
168 476 139 52 65 78
168 477 138 60 67 76
168 478 136 68 79 94
168 478 137 63 73 88
168 476 140 56 64 73
172 472 136 76 84 95
172 472 137 86 93 103
172 472 138 80 85 96
172 472 139 74 78 89
172 472 140 66 73 84
172 472 141 61 69 80
172 472 142 57 66 78
