ply
format ascii 1.0
comment Version 2, Copyright 2017, 8i Labs, Inc.
comment frame_to_world_scale 0.179523
comment frame_to_world_translation -45.2095 7.18301 -54.3561
comment width 1023
element vertex 318
property float x
property float y
property float z
property uchar red
property uchar green
property uchar blue
end_header
160 578 183 150 161 191
160 579 183 139 147 177
161 579 183 138 144 168
160 581 181 87 106 157
160 580 182 101 115 159
160 580 183 116 127 162
160 581 182 84 102 154
161 580 183 114 120 156
161 581 182 78 95 149
161 581 183 87 97 148
160 582 180 72 95 149
160 582 181 79 100 152
160 583 180 64 93 145
160 583 181 65 93 145
161 583 181 68 94 144
161 582 182 74 94 149
161 582 183 73 89 146
161 583 182 65 89 140
162 580 183 123 123 154
162 581 183 102 106 148
162 582 183 86 101 144
162 583 183 79 99 140
160 576 185 152 162 195
160 577 184 141 152 190
160 577 185 139 151 190
161 577 185 139 154 191
161 576 186 164 174 201
161 576 187 167 177 201
161 577 186 138 155 191
160 578 184 148 160 190
161 578 184 147 159 184
161 578 185 136 151 185
161 579 184 147 154 175
162 576 187 152 168 198
162 577 186 122 141 183
162 577 187 126 143 186
163 577 187 116 131 179
162 578 185 133 146 178
162 579 184 150 154 169
162 579 185 147 155 175
163 579 185 142 152 171
162 578 186 121 138 179
163 578 186 118 130 172
163 578 187 108 122 172
163 579 186 131 143 170
162 576 188 156 171 200
163 576 188 132 148 187
163 576 189 136 151 189
163 577 188 119 134 180
162 580 184 144 146 164
162 581 184 129 132 154
163 580 184 147 150 163
163 580 185 151 157 169
163 581 184 136 139 155
163 581 185 140 147 161
163 582 184 124 132 151
163 582 185 140 146 160
163 583 184 114 123 148
163 583 185 133 139 158
164 578 186 111 125 167
164 578 187 112 127 169
164 579 186 116 129 160
164 579 187 108 122 158
165 579 187 115 124 157
164 576 189 147 159 196
164 577 188 129 144 184
164 577 189 142 156 194
165 576 189 143 155 192
165 577 189 141 152 189
165 576 190 143 153 189
164 578 188 125 142 179
165 578 188 133 145 178
165 579 188 126 135 167
166 577 189 129 137 177
166 576 190 133 141 182
166 576 191 133 138 180
166 577 190 127 133 176
167 576 191 122 126 174
167 577 190 120 124 170
167 577 191 118 120 170
166 578 189 125 133 169
166 579 188 120 125 160
166 579 189 118 124 161
167 579 188 107 113 155
167 579 189 106 113 156
166 578 190 124 130 172
167 578 190 113 119 163
164 580 185 140 150 167
164 581 185 129 141 160
164 580 186 123 136 160
164 581 186 118 133 157
165 580 186 109 124 152
165 580 187 107 119 152
165 581 186 107 125 151
165 581 187 98 119 147
164 582 185 127 138 156
164 583 185 129 137 157
164 582 186 115 130 153
164 583 186 121 134 155
165 582 186 106 125 149
165 582 187 96 116 146
165 583 186 109 125 150
165 583 187 97 116 145
166 580 187 105 114 151
166 581 187 95 110 148
166 582 187 91 110 146
166 583 187 89 109 143
166 580 188 107 115 154
167 580 188 100 110 152
167 580 189 95 106 151
167 581 188 88 101 147
167 581 189 81 96 145
166 582 188 83 102 144
166 583 188 83 104 141
167 582 188 78 98 143
167 582 189 72 93 142
167 583 188 76 98 140
167 583 189 73 98 138
160 584 179 61 93 143
160 585 178 74 101 148
160 585 179 63 94 143
160 586 177 77 104 148
160 587 177 71 100 144
160 586 178 76 103 146
160 586 179 71 98 142
160 587 178 70 99 143
160 587 179 63 92 139
160 584 180 60 90 142
160 585 180 60 91 141
161 584 181 57 88 137
161 585 180 60 91 140
161 585 181 56 89 136
161 584 182 57 81 133
161 585 182 55 85 131
160 586 180 57 88 136
160 587 180 58 89 135
161 586 180 58 89 135
161 586 181 62 92 135
161 587 180 56 89 133
161 587 181 66 97 134
161 586 182 60 91 133
161 587 182 80 108 139
162 584 183 69 91 134
162 585 182 54 83 130
162 585 183 60 84 132
162 586 182 60 92 133
162 586 183 51 84 131
162 587 182 80 108 140
162 587 183 77 105 137
160 588 177 70 99 140
160 589 177 87 108 142
160 588 178 58 91 137
160 588 179 56 88 137
160 589 178 72 99 137
160 589 179 59 91 134
160 590 177 102 118 145
160 590 178 99 116 140
160 590 179 91 111 137
160 591 179 101 118 137
160 588 180 54 88 133
160 589 180 58 91 131
160 589 181 65 95 130
161 588 180 54 88 130
161 588 181 67 98 135
161 589 181 71 99 132
161 588 182 91 114 141
161 589 182 95 116 139
161 589 183 107 124 143
160 590 180 88 108 134
160 590 181 91 111 135
160 591 180 106 120 138
160 591 181 105 120 137
161 590 181 90 110 135
160 590 182 111 125 144
160 591 182 106 121 139
160 591 183 106 123 143
161 590 182 101 118 138
161 590 183 110 125 143
161 591 183 108 124 144
162 588 183 100 121 145
162 589 183 103 121 142
163 584 184 97 110 142
163 584 185 111 120 147
163 585 184 76 93 136
163 585 185 85 100 138
162 586 184 53 85 133
162 587 184 71 99 136
163 586 184 60 84 133
163 586 185 70 91 135
163 587 184 63 92 134
163 587 185 63 91 134
161 589 184 113 127 144
160 591 184 98 119 141
161 590 184 109 125 143
161 590 185 95 115 139
161 591 184 98 118 140
161 591 185 83 106 135
161 591 186 67 96 132
162 588 184 93 116 142
162 588 185 89 113 141
162 589 184 106 123 143
162 589 185 96 117 139
163 588 185 78 104 137
163 589 185 89 113 139
162 589 186 75 102 132
163 588 186 74 99 135
163 589 186 72 99 133
163 589 187 62 90 130
162 590 185 92 114 138
162 591 185 81 105 134
162 590 186 71 98 131
162 590 187 61 90 129
162 591 186 63 94 131
162 591 187 55 87 128
163 590 187 60 89 129
163 589 188 59 87 129
162 591 188 51 84 126
163 590 188 53 86 127
163 591 188 51 86 126
163 591 189 47 86 123
164 584 185 117 125 151
164 585 185 94 110 142
164 584 186 113 126 150
164 585 186 98 115 144
165 584 186 110 125 149
165 584 187 103 120 146
165 585 186 100 118 145
165 585 187 101 119 144
164 586 185 79 99 137
164 587 185 68 93 134
164 586 186 85 106 139
164 587 186 70 96 134
164 587 187 74 98 135
165 586 187 86 107 138
165 587 187 76 98 134
166 584 187 96 115 144
165 586 188 88 109 139
165 587 188 72 95 132
166 584 188 87 108 140
166 585 188 95 115 142
166 585 189 88 109 140
167 584 189 74 99 135
167 585 189 83 105 137
167 585 190 87 109 139
166 586 188 88 110 139
166 586 189 82 106 138
166 587 188 75 98 134
166 587 189 67 92 131
167 586 189 83 107 138
167 586 190 88 109 140
167 587 190 73 97 134
167 587 191 69 96 131
164 588 186 73 98 135
164 588 187 64 92 130
164 588 188 53 85 125
164 589 188 54 86 127
164 589 189 59 92 129
165 588 188 54 84 126
165 588 189 48 82 125
165 589 189 52 89 126
165 589 190 52 90 126
164 590 188 58 89 129
164 590 189 67 98 131
164 591 189 55 91 124
164 591 190 66 97 125
165 590 190 79 106 134
165 591 190 80 107 132
165 591 191 78 104 128
166 588 189 54 84 127
166 588 190 52 84 127
166 589 190 49 86 126
166 589 191 48 84 125
167 588 190 58 86 129
167 588 191 61 88 129
167 589 191 50 84 126
166 590 191 69 99 131
166 591 191 96 116 137
168 577 191 113 113 164
168 579 189 96 108 151
168 578 190 113 119 161
168 578 191 117 119 164
168 579 190 102 114 154
169 578 191 110 115 156
169 579 190 107 119 153
169 579 191 111 120 156
170 579 191 97 101 146
168 580 189 96 107 150
168 581 189 88 102 148
168 580 190 105 116 152
168 581 190 106 118 154
169 580 190 111 123 153
169 580 191 104 118 149
169 581 190 119 131 158
169 581 191 124 137 160
168 582 189 76 97 141
168 583 189 75 99 140
168 582 190 89 108 143
168 583 190 93 112 145
169 582 190 106 123 149
169 582 191 120 135 157
169 583 190 94 115 143
169 583 191 102 121 146
170 580 191 94 106 142
170 581 191 111 124 151
170 582 191 122 135 156
170 583 191 96 117 140
168 584 190 92 111 141
168 584 191 102 119 144
168 585 190 92 112 138
168 585 191 99 117 140
169 584 191 116 131 152
169 585 191 104 121 143
168 586 190 98 117 142
168 586 191 101 120 144
168 587 191 83 108 136
169 586 191 99 118 142
169 587 191 91 114 140
168 588 191 63 92 127
