ply
format ascii 1.0
comment Version 2, Copyright 2017, 8i Labs, Inc.
comment frame_to_world_scale 0.179523
comment frame_to_world_translation -45.2095 7.18301 -54.3561
comment width 1023
element vertex 137
property float x
property float y
property float z
property uchar red
property uchar green
property uchar blue
end_header
171 656 192 85 97 137
171 657 192 93 103 138
171 658 192 104 112 142
171 659 192 108 118 142
171 660 192 104 116 141
171 661 192 83 100 133
171 662 192 72 92 130
171 663 192 65 88 129
172 656 192 88 97 135
172 656 193 97 104 136
172 657 192 98 106 139
172 657 193 103 110 139
173 656 193 105 110 138
173 657 193 106 113 135
173 656 194 110 117 139
173 657 194 131 134 144
172 658 192 106 115 143
172 658 193 106 115 140
172 659 192 105 116 142
172 659 193 107 117 139
173 658 193 112 119 138
173 658 194 142 142 148
173 659 194 143 144 150
174 656 194 116 125 142
174 656 195 141 145 156
174 657 194 150 149 155
174 657 195 162 159 162
175 656 195 147 149 158
175 657 195 165 162 164
174 658 194 160 155 157
174 658 195 165 158 159
174 659 194 164 158 158
174 659 195 166 158 157
175 658 195 165 158 157
175 659 195 165 157 155
175 656 196 146 149 158
175 657 196 162 159 163
175 658 196 165 158 157
175 659 196 165 156 155
172 660 192 92 105 135
172 660 193 93 107 133
172 661 193 95 110 136
173 660 194 138 140 148
173 661 194 123 129 139
172 662 193 118 129 146
172 663 193 130 137 151
173 662 194 118 125 136
173 663 194 127 132 142
174 660 194 164 158 158
174 660 195 166 158 157
174 661 195 163 156 157
175 660 195 167 158 155
175 661 195 167 158 156
174 662 195 155 150 153
174 663 195 137 136 142
175 662 195 165 158 157
175 663 195 159 155 156
175 660 196 166 156 154
175 661 196 166 157 156
175 662 196 167 159 158
175 663 196 164 158 158
171 664 192 70 92 131
171 665 192 81 102 137
171 666 192 76 99 136
171 666 193 86 104 135
171 667 192 70 94 136
171 667 193 87 105 135
171 668 192 76 98 134
171 668 193 111 122 139
171 669 192 88 107 138
171 669 193 119 128 141
170 670 192 85 105 143
170 671 192 78 99 138
171 670 192 92 108 140
171 670 193 111 121 141
171 671 192 73 91 134
171 671 193 71 83 129
172 664 193 135 141 153
172 665 193 118 128 144
173 664 194 141 145 155
173 665 194 108 121 136
172 666 193 105 117 136
172 667 193 124 133 147
172 667 194 164 161 164
173 666 194 134 141 152
173 667 194 165 162 166
174 664 195 113 118 131
174 665 195 82 99 127
175 664 195 129 130 140
175 665 195 64 81 115
174 666 195 106 120 143
174 667 195 158 158 165
175 664 196 149 147 153
175 665 196 101 109 128
175 666 196 61 85 118
175 667 196 132 139 151
175 667 197 119 128 142
172 668 193 134 138 149
172 669 193 151 150 155
172 668 194 165 160 162
172 669 194 166 160 161
173 668 194 171 164 163
173 669 194 172 163 162
173 669 195 171 163 161
172 670 193 146 147 154
172 671 193 100 107 135
172 670 194 163 159 161
172 671 194 127 129 144
173 670 194 170 162 162
173 670 195 163 158 159
173 671 194 155 153 157
173 671 195 148 148 156
174 668 195 171 164 164
174 669 195 167 160 160
174 670 195 164 158 160
173 671 196 125 132 149
174 668 196 167 162 165
174 669 196 164 159 162
175 668 196 162 159 163
175 668 197 148 148 155
175 669 197 154 153 159
175 669 198 144 146 154
174 670 196 147 147 153
174 670 197 142 144 153
174 671 196 117 126 142
174 671 197 97 113 136
175 670 197 142 145 154
175 671 197 115 125 142
174 671 198 96 114 141
175 670 198 141 145 156
175 670 199 133 141 154
175 671 198 120 132 147
175 671 199 117 131 148
175 670 200 92 116 141
175 671 200 87 112 139
175 671 201 69 97 128
175 671 202 55 79 110
