ply
format ascii 1.0
comment Version 2, Copyright 2017, 8i Labs, Inc.
comment frame_to_world_scale 0.179523
comment frame_to_world_translation -45.2095 7.18301 -54.3561
comment width 1023
element vertex 315
property float x
property float y
property float z
property uchar red
property uchar green
property uchar blue
end_header
160 736 203 68 117 158
160 737 203 61 110 155
160 738 202 82 128 161
160 738 203 53 102 148
160 739 202 93 129 161
160 739 203 67 102 149
161 738 203 45 74 143
161 739 203 79 98 160
160 736 204 62 110 155
161 736 204 61 100 150
161 736 205 101 116 150
161 737 204 57 89 144
161 737 205 93 105 139
161 738 204 80 101 162
161 739 204 103 118 179
162 736 205 133 110 131
162 737 205 116 100 118
162 736 206 144 81 95
162 737 206 138 81 94
163 736 206 153 60 67
163 736 207 170 67 69
163 737 206 153 75 81
162 738 204 93 112 153
162 738 205 113 108 128
162 739 204 101 115 162
162 739 205 105 111 146
163 738 205 141 101 99
163 739 205 123 94 101
163 738 206 157 89 84
160 740 201 122 155 185
160 741 201 142 170 198
160 740 202 92 130 163
160 741 202 111 145 176
161 740 202 70 102 147
161 740 203 59 76 145
161 741 202 73 104 149
161 741 203 50 67 138
160 742 201 128 159 188
160 743 200 142 170 198
160 743 201 130 160 188
161 743 201 98 132 164
160 742 202 96 135 168
161 742 202 61 89 144
161 742 203 44 66 137
161 743 202 66 91 142
162 741 203 56 69 138
162 742 202 58 66 144
162 742 203 64 75 146
162 743 202 46 52 137
162 743 203 54 53 142
163 742 203 76 87 144
163 743 203 63 72 130
162 740 204 72 87 143
162 741 204 65 76 132
163 740 204 86 91 121
163 740 205 100 85 95
163 741 204 80 86 116
163 742 204 78 92 132
164 736 207 182 69 70
164 737 206 168 60 69
164 737 207 173 50 61
165 737 207 183 60 63
164 739 205 135 75 70
164 738 206 166 63 66
164 738 207 172 42 55
164 739 206 153 62 58
165 738 207 185 64 72
165 739 206 167 41 53
165 739 207 177 43 62
166 739 207 183 65 73
164 743 203 68 70 99
164 740 205 120 73 72
164 741 204 99 79 89
164 741 205 119 74 74
165 741 205 154 81 73
164 740 206 140 63 57
165 740 206 165 67 72
165 740 207 174 55 73
165 741 206 169 84 79
164 742 204 89 73 89
164 742 205 122 73 72
164 743 204 76 64 86
165 742 204 115 64 71
165 742 205 142 67 66
165 743 204 108 68 81
166 740 207 175 53 66
166 741 206 173 60 64
166 741 207 172 52 62
167 740 207 169 43 54
167 741 207 168 42 51
166 742 205 159 63 68
166 743 204 143 95 97
166 743 205 155 90 89
167 743 205 162 74 67
166 742 206 168 51 60
167 742 206 168 35 49
160 746 199 146 165 187
160 747 198 129 119 128
160 747 199 130 142 157
161 747 199 132 159 182
160 749 197 168 56 66
160 748 198 125 93 105
160 748 199 125 135 146
160 749 198 142 82 95
161 748 199 126 152 171
161 749 198 148 145 156
161 749 199 137 152 166
160 750 197 176 62 74
160 751 196 172 43 54
160 751 197 172 33 50
161 751 197 170 43 65
160 750 198 180 117 125
161 750 198 171 136 145
161 751 198 180 90 107
162 748 199 126 157 183
162 749 199 147 167 187
163 749 199 132 156 186
162 751 197 160 65 80
163 751 197 148 88 101
162 750 198 151 148 165
162 750 199 159 169 188
162 751 198 141 93 112
163 750 198 144 157 179
163 750 199 141 162 189
163 751 198 126 115 134
164 749 199 74 91 155
164 750 199 80 95 152
164 751 198 102 118 145
164 751 199 86 103 150
165 750 199 63 50 130
165 751 198 82 96 141
165 751 199 70 73 139
166 751 199 76 47 126
160 744 200 136 165 193
160 744 201 131 161 188
160 745 200 141 170 198
161 744 201 97 127 162
161 745 200 126 159 189
161 745 201 109 140 173
160 746 200 149 175 201
161 746 200 131 161 188
161 746 201 118 149 180
161 747 200 130 160 187
162 745 201 74 94 144
162 744 202 52 62 135
162 745 202 65 75 139
163 744 202 51 59 137
163 744 203 60 73 128
163 745 202 79 86 147
162 746 201 91 113 156
162 747 200 113 143 175
162 747 201 95 120 159
163 746 201 66 72 141
163 747 200 83 105 153
163 747 201 61 65 134
163 746 202 77 75 143
162 748 200 115 149 182
163 748 200 84 105 157
163 749 200 75 104 158
164 744 203 73 72 104
164 745 202 86 85 126
164 745 203 82 82 119
165 744 203 74 54 82
165 745 203 74 52 82
164 747 201 64 49 120
165 747 201 85 60 101
164 746 202 84 76 124
164 747 202 78 63 111
165 746 202 82 67 93
165 746 203 74 50 78
165 747 202 83 64 91
166 745 203 94 60 72
166 746 203 78 43 59
166 747 202 88 46 68
166 747 203 79 33 48
167 746 203 101 54 64
167 747 202 91 30 53
167 747 203 90 31 47
165 744 204 87 59 78
166 744 204 133 95 96
166 745 204 110 77 83
167 744 204 160 117 110
167 744 205 171 120 113
167 745 204 142 96 95
167 746 204 118 67 71
164 748 200 65 66 140
164 748 201 59 49 130
164 749 200 59 67 141
165 748 200 84 64 125
165 748 201 98 75 118
165 749 200 81 62 125
165 750 200 68 51 130
166 748 201 114 77 100
166 749 200 110 76 119
166 749 201 122 82 111
167 748 201 114 61 79
167 749 201 123 59 83
167 748 202 104 42 62
167 749 202 107 32 54
166 750 200 102 57 114
166 751 200 89 39 115
167 750 200 132 59 101
167 750 201 132 62 96
167 751 200 128 56 105
168 741 207 179 65 70
168 743 205 166 60 63
168 742 206 172 28 50
168 742 207 178 50 59
168 743 206 169 36 58
169 742 207 179 43 64
169 743 206 179 57 72
169 743 207 183 68 85
170 742 207 181 47 74
170 743 207 194 83 101
171 743 207 196 74 95
168 746 203 130 73 75
168 747 202 89 21 35
168 747 203 127 71 72
169 747 203 148 83 79
168 744 205 172 74 85
168 745 204 159 87 86
168 745 205 166 59 72
169 745 205 169 34 60
168 744 206 170 39 69
169 744 206 173 39 57
168 746 204 159 95 92
168 747 204 176 123 119
169 746 204 185 107 103
169 746 205 176 76 82
169 747 204 183 122 114
170 745 205 172 36 54
170 744 206 184 59 71
170 744 207 196 82 94
170 745 206 176 36 54
171 744 207 189 60 79
171 745 206 185 58 72
171 745 207 183 42 63
170 746 205 175 52 68
170 747 204 165 66 67
171 746 205 183 66 75
171 747 204 162 38 48
171 747 205 175 53 59
171 746 206 196 101 103
168 749 201 117 39 67
168 748 202 93 22 38
168 748 203 104 36 43
168 749 202 100 18 52
169 748 203 121 44 54
169 749 202 100 20 47
169 749 203 115 36 52
168 750 201 124 41 76
168 751 200 143 59 98
168 751 201 141 53 89
169 750 201 111 21 59
169 751 200 153 56 92
169 751 201 127 35 68
169 750 202 102 16 51
170 748 203 143 50 61
170 749 202 113 37 51
170 749 203 132 54 65
171 748 203 150 52 62
171 749 203 157 85 89
170 751 201 117 24 47
170 750 202 112 31 48
170 751 202 110 20 42
171 750 202 135 58 66
171 750 203 150 83 88
171 751 202 120 27 44
171 748 204 154 42 56
172 744 207 184 28 54
172 745 206 197 81 87
172 745 207 186 44 61
173 744 207 188 27 63
173 745 207 188 41 66
172 746 205 210 123 114
172 747 204 172 51 63
172 747 205 190 78 77
173 747 205 188 60 67
172 746 206 217 128 125
173 746 206 198 75 75
173 747 206 190 62 63
174 745 207 180 52 74
175 745 207 181 100 107
174 747 205 186 55 67
175 747 205 183 40 66
174 746 206 185 42 58
174 746 207 187 55 70
174 747 206 184 36 53
175 746 206 182 57 69
175 746 207 181 83 94
175 747 206 181 38 64
172 749 203 166 78 81
172 750 203 163 70 73
172 751 202 146 48 56
172 751 203 161 57 61
173 750 203 172 59 68
173 751 202 175 85 91
173 751 203 175 75 82
174 750 203 171 54 62
174 751 203 175 74 82
175 751 203 171 60 70
172 748 204 163 43 59
172 748 205 176 46 60
172 749 204 164 60 69
173 748 204 175 63 78
173 748 205 182 63 77
173 749 204 176 73 79
174 748 204 190 105 107
174 748 205 189 95 98
174 749 204 183 95 95
175 748 205 182 56 73
175 749 204 177 78 77
175 749 205 179 66 71
174 750 204 178 75 75
175 750 204 172 66 67
