ply
format ascii 1.0
comment Version 2, Copyright 2017, 8i Labs, Inc.
comment frame_to_world_scale 0.179523
comment frame_to_world_translation -45.2095 7.18301 -54.3561
comment width 1023
element vertex 197
property float x
property float y
property float z
property uchar red
property uchar green
property uchar blue
end_header
178 432 75 57 97 170
178 433 75 72 106 174
179 432 74 64 105 177
179 432 75 63 102 174
179 433 75 76 110 179
179 434 75 95 125 183
179 435 75 112 139 185
176 432 77 64 99 157
176 433 77 77 114 158
177 432 76 55 94 165
177 433 76 90 121 174
177 433 77 88 122 170
176 432 78 65 98 155
176 433 78 74 110 156
176 434 77 103 133 170
177 434 76 111 139 184
177 434 77 117 144 181
177 435 77 115 143 181
176 434 78 83 117 156
176 435 78 93 124 165
178 432 76 65 100 170
178 433 76 84 116 176
178 434 76 107 134 183
178 435 76 123 148 189
178 435 77 119 147 187
179 435 76 118 144 186
177 436 77 113 144 185
176 436 78 78 118 164
176 437 79 64 106 157
177 436 78 110 143 181
177 437 78 95 133 178
176 438 78 73 114 163
176 438 79 60 102 154
176 439 79 52 94 143
177 438 78 83 121 168
177 439 78 68 109 157
177 439 79 65 104 151
178 436 76 121 147 186
178 436 77 104 138 182
178 437 77 99 133 179
179 436 76 127 150 187
179 437 76 118 144 185
179 437 77 102 134 179
178 438 77 80 122 172
179 438 77 58 109 164
178 438 78 71 111 163
178 439 78 45 93 147
179 439 78 43 93 148
181 432 73 64 103 181
180 432 74 64 105 180
180 433 74 78 112 184
180 433 75 84 116 184
181 432 74 73 110 185
181 433 74 84 120 185
180 434 74 102 130 190
180 434 75 94 125 186
180 435 75 119 144 189
181 434 74 90 125 185
181 434 75 95 129 187
181 435 75 109 139 191
182 432 73 58 97 179
183 432 73 58 99 176
182 432 74 69 108 183
182 433 74 84 122 188
183 433 74 70 111 181
182 434 74 77 117 187
182 434 75 97 133 193
182 435 75 100 136 194
183 434 74 65 106 179
183 434 75 60 104 177
183 435 75 72 115 181
180 435 76 124 148 187
183 435 76 66 112 173
181 436 75 115 143 187
180 436 76 131 154 185
180 437 76 130 152 184
180 437 77 111 139 182
181 436 76 127 151 188
181 437 76 122 150 184
181 437 77 108 140 176
180 438 77 90 125 170
180 439 77 50 100 149
181 438 77 91 122 159
181 439 77 87 116 150
180 439 78 30 90 141
181 439 78 80 107 140
182 436 76 112 145 186
182 437 76 101 137 175
182 437 77 98 133 171
183 436 76 91 126 176
183 437 76 102 133 174
183 437 77 96 129 169
182 438 77 86 120 158
183 438 77 92 120 151
182 439 78 76 104 136
183 439 78 74 102 132
176 440 79 49 86 127
176 441 79 44 83 119
177 440 79 58 95 138
177 441 79 61 91 126
177 442 79 64 90 122
178 440 78 47 84 136
178 441 79 48 84 124
179 440 78 36 79 133
179 441 78 37 75 126
179 441 79 33 75 121
178 442 79 59 90 119
179 442 79 38 77 112
179 443 79 46 79 109
180 440 78 28 81 127
180 441 78 32 76 121
180 441 79 30 75 112
181 440 78 51 87 120
181 441 79 27 72 107
180 442 79 37 72 107
181 442 79 36 72 104
182 440 78 49 81 113
182 440 79 32 73 107
182 441 79 32 66 104
183 440 78 51 85 116
183 440 79 49 82 111
183 441 79 52 82 110
182 442 79 47 72 105
184 432 73 54 94 168
185 432 73 67 104 169
184 433 74 82 118 180
185 432 74 73 110 172
185 433 74 77 117 174
184 434 74 97 132 185
184 434 75 81 123 176
184 435 75 73 117 170
185 434 74 80 124 176
185 434 75 80 123 172
185 435 75 68 117 165
186 432 74 59 101 164
186 433 74 65 106 164
186 433 75 70 109 161
187 432 74 47 92 159
187 432 75 43 90 155
187 433 75 57 98 157
186 434 75 73 115 161
187 434 75 64 106 158
184 435 76 66 110 166
185 435 76 71 115 162
187 433 76 66 107 158
186 434 76 71 110 155
186 435 76 82 117 158
186 435 77 72 111 149
187 434 76 52 99 150
187 434 77 54 99 147
187 435 77 63 105 144
187 434 78 65 101 144
187 435 78 62 101 139
187 435 79 63 97 133
184 436 76 61 104 160
184 437 76 71 109 159
184 437 77 74 109 152
185 436 76 60 107 153
185 436 77 60 103 148
185 437 77 65 100 141
185 437 78 67 100 133
184 438 77 75 108 141
184 438 78 69 100 133
184 439 78 59 90 122
184 439 79 47 80 110
185 438 78 53 90 124
185 438 79 50 84 116
185 439 79 31 68 101
186 436 77 65 105 144
186 436 78 51 93 132
186 437 78 48 87 127
186 437 79 44 83 120
187 436 78 60 100 138
187 436 79 63 96 130
187 437 79 53 86 121
186 438 79 35 76 112
188 432 75 36 85 151
188 433 75 53 94 154
188 432 76 44 87 148
188 432 77 35 81 143
188 433 76 50 91 149
188 433 77 44 88 144
189 432 77 33 80 142
188 433 78 42 85 140
189 432 78 43 84 140
189 432 79 46 88 136
189 433 78 35 81 137
189 433 79 43 86 135
188 434 76 48 93 148
188 434 77 48 91 144
188 434 78 55 94 142
188 434 79 54 92 136
188 435 78 62 97 139
188 435 79 59 92 130
189 434 79 51 91 131
190 432 79 52 91 134
184 440 79 42 77 104
