ply
format ascii 1.0
comment Version 2, Copyright 2017, 8i Labs, Inc.
comment frame_to_world_scale 0.179523
comment frame_to_world_translation -45.2095 7.18301 -54.3561
comment width 1023
element vertex 400
property float x
property float y
property float z
property uchar red
property uchar green
property uchar blue
end_header
192 416 256 95 110 127
192 417 256 95 112 130
192 417 257 93 112 132
193 416 256 97 111 127
193 416 257 102 115 131
192 417 258 93 112 136
193 416 258 100 115 131
193 416 259 100 116 133
193 417 258 96 114 135
193 417 259 97 115 136
192 418 256 95 111 138
192 418 257 96 112 143
192 419 256 101 112 154
192 419 257 98 111 152
192 418 258 97 113 146
192 419 258 99 111 154
193 418 259 102 116 148
193 419 258 102 112 157
193 419 259 104 117 156
194 416 258 104 117 132
194 416 259 103 116 131
193 417 260 94 114 136
193 418 260 102 117 147
193 419 260 107 117 157
194 416 260 109 121 135
194 417 260 101 119 138
194 417 261 99 119 140
195 416 260 109 120 134
195 416 261 111 124 140
195 417 261 99 119 139
195 416 262 101 119 137
195 417 262 83 107 136
194 418 260 103 119 149
194 418 261 103 119 151
194 419 260 108 119 160
194 419 261 112 124 165
195 419 261 115 127 166
195 418 262 102 117 153
195 419 262 115 127 164
192 420 256 107 116 163
192 420 257 108 116 165
192 421 256 121 133 174
192 421 257 113 121 172
193 421 256 134 146 182
193 421 257 115 126 175
192 420 258 107 114 162
193 420 258 110 115 166
193 420 259 108 116 164
193 421 258 116 120 174
193 422 256 156 168 193
194 421 258 119 125 177
194 421 259 120 126 176
194 422 256 131 149 180
194 422 257 128 142 182
194 423 256 141 157 184
194 423 257 125 142 178
195 423 256 124 141 178
195 423 257 114 132 173
194 422 258 127 137 183
194 422 259 122 130 178
195 422 258 125 139 182
195 422 259 108 121 173
195 423 258 92 113 164
194 420 260 106 117 165
194 421 260 119 128 174
195 420 261 111 121 170
195 421 260 122 130 178
195 421 261 112 123 174
195 420 262 114 125 172
195 422 260 116 125 175
196 416 262 91 112 132
196 416 263 80 106 131
196 417 263 73 99 134
196 418 263 94 110 150
196 419 263 115 127 165
196 423 257 111 127 171
196 423 258 59 84 149
196 423 259 68 87 152
197 423 259 87 105 157
196 421 261 119 127 178
196 420 262 120 131 174
196 420 263 124 136 175
196 421 262 114 124 176
196 421 263 113 127 177
197 420 263 125 138 178
197 421 262 119 126 178
197 421 263 113 123 175
196 422 260 113 122 174
196 422 261 128 133 182
196 423 260 87 103 161
197 422 261 125 130 177
197 423 260 119 130 169
197 423 261 127 136 172
197 422 262 123 128 175
197 422 263 116 121 172
198 423 261 130 138 169
198 422 263 118 121 171
198 423 262 126 131 169
198 423 263 125 130 170
199 423 263 128 132 170
196 416 264 89 112 137
196 417 264 85 108 142
197 416 264 94 114 136
197 416 265 102 119 138
197 417 264 94 115 145
197 417 265 103 120 145
196 418 264 99 115 152
196 419 264 117 131 166
197 418 264 107 124 159
197 418 265 120 134 161
197 419 264 119 133 169
197 419 265 126 138 171
198 416 265 100 116 133
198 416 266 105 118 135
198 416 267 104 117 134
198 417 266 122 131 147
198 417 267 130 134 146
199 416 267 102 117 135
199 417 267 137 140 150
198 419 265 138 149 174
198 418 266 149 154 169
198 418 267 167 168 175
198 419 266 158 165 181
198 419 267 173 176 184
199 418 267 174 171 176
199 419 267 169 173 184
199 416 268 118 129 143
199 417 268 147 148 157
199 418 268 178 175 178
199 419 268 170 173 182
197 420 264 128 140 178
197 421 264 119 130 177
198 420 264 126 137 177
198 420 265 131 142 175
198 421 264 110 120 169
198 421 265 122 132 172
199 421 265 120 128 171
198 420 266 143 154 178
199 420 266 141 152 178
199 420 267 149 159 180
199 421 266 131 140 175
199 421 267 138 148 179
198 422 264 114 120 171
199 422 264 116 122 171
199 422 265 118 124 171
199 423 264 124 128 171
199 423 265 122 127 172
199 422 266 124 130 175
199 420 268 153 162 181
195 424 256 118 135 173
196 424 256 126 141 178
196 424 257 119 134 174
196 425 256 114 130 168
197 425 256 110 127 161
197 425 257 127 140 168
196 424 258 74 97 154
197 424 258 92 110 155
197 424 259 115 130 163
197 425 258 144 154 173
197 426 256 121 135 161
197 426 257 126 138 161
197 427 256 137 148 167
198 425 258 170 171 180
198 425 259 175 174 180
198 426 257 139 149 165
198 427 256 113 128 152
198 427 257 125 138 157
198 426 258 168 169 176
198 426 259 179 174 176
198 427 258 153 158 170
199 426 259 176 172 175
199 427 258 157 159 168
199 427 259 154 157 166
197 424 260 144 155 176
198 424 260 173 176 188
198 424 261 164 169 184
198 425 260 180 179 184
199 424 261 174 176 187
199 425 260 184 179 181
199 425 261 184 181 185
198 424 262 154 160 179
199 424 262 158 163 179
199 424 263 144 149 173
199 425 262 181 181 188
199 426 260 182 175 177
199 427 260 165 166 174
197 428 256 124 137 158
197 429 256 88 108 141
197 430 256 99 112 138
197 431 256 139 143 152
198 428 256 86 108 140
198 428 257 70 92 131
198 429 256 69 89 136
198 429 257 52 67 125
199 428 258 79 98 129
199 428 259 94 113 138
199 429 258 69 83 124
199 429 259 97 110 134
198 430 256 90 104 138
198 430 257 85 98 134
198 431 256 120 129 144
198 431 257 105 118 138
199 430 258 123 127 144
199 430 259 144 145 153
199 431 258 127 132 144
199 431 259 137 138 145
199 424 264 132 137 170
200 416 268 121 129 144
200 416 269 136 141 152
200 417 268 151 152 159
200 417 269 156 155 163
201 416 269 124 131 146
200 417 270 161 161 168
201 416 270 121 130 146
201 417 270 147 150 160
201 417 271 140 147 160
200 418 268 176 173 178
200 418 269 173 171 177
200 419 268 170 173 182
200 419 269 161 166 178
200 418 270 167 167 175
201 418 270 161 164 174
201 418 271 146 153 168
201 419 270 148 157 174
201 419 271 138 149 172
202 416 270 106 119 140
202 416 271 103 119 139
202 417 271 128 137 153
200 421 267 136 145 180
200 423 265 120 125 170
200 422 266 123 129 174
200 422 267 129 136 178
200 423 266 119 126 171
201 422 267 128 134 178
201 423 266 120 127 170
201 423 267 123 130 174
200 420 268 144 154 179
200 420 269 139 150 178
200 421 268 135 146 180
201 420 269 138 149 177
201 421 268 134 143 181
201 421 269 130 142 179
201 420 270 136 146 176
201 420 271 139 149 178
201 421 270 128 141 177
201 422 268 134 141 182
201 422 269 135 143 182
201 423 268 127 134 176
202 420 271 136 147 179
202 421 270 129 141 179
202 421 271 143 155 187
203 421 271 154 166 194
202 422 269 133 141 180
202 423 268 127 134 174
202 423 269 130 137 176
203 423 269 130 137 173
202 422 270 136 145 180
203 422 270 140 150 181
203 422 271 148 161 187
203 423 270 138 146 178
203 423 271 146 156 183
204 423 271 147 155 180
200 425 261 187 181 182
200 425 262 186 182 185
200 425 263 175 177 185
200 426 260 180 176 180
200 426 261 182 178 182
200 427 260 155 160 171
200 427 261 147 156 171
200 426 262 180 179 182
201 426 262 170 172 180
201 426 263 164 169 179
201 427 262 128 141 162
201 427 263 102 120 151
200 429 259 108 121 140
200 430 259 153 151 157
200 431 259 144 144 150
200 428 260 88 112 138
200 428 261 79 109 142
200 429 260 109 122 139
201 428 261 77 105 140
201 429 261 106 119 139
201 428 262 65 88 135
201 428 263 50 72 129
201 429 262 99 112 137
201 429 263 93 107 134
200 430 260 144 144 151
200 431 260 148 146 150
200 431 261 151 148 151
201 430 261 138 140 149
201 431 261 148 145 150
201 430 262 136 138 147
201 430 263 134 136 146
201 431 262 148 145 149
201 431 263 149 146 149
202 429 263 117 126 141
202 430 263 133 135 146
202 431 263 146 143 149
200 424 264 128 133 166
200 424 265 120 124 165
200 425 264 147 152 172
201 424 265 122 125 165
201 425 264 145 152 171
201 425 265 122 126 160
201 424 266 122 127 167
201 424 267 124 130 169
201 425 266 121 124 161
201 426 264 136 147 167
201 426 265 113 123 155
201 427 264 95 111 149
202 424 267 124 130 166
202 425 266 119 122 157
202 425 267 123 127 159
203 425 267 119 123 152
202 426 265 97 106 148
202 427 264 81 98 142
202 427 265 72 84 137
202 426 266 99 106 146
202 426 267 111 115 148
202 427 266 69 81 133
203 426 267 107 112 146
203 427 266 79 91 134
203 427 267 98 108 140
202 424 268 124 131 168
202 425 268 124 130 163
203 424 268 123 129 166
203 424 269 124 130 168
203 425 268 121 126 158
203 425 269 121 126 161
203 424 270 130 137 171
203 426 268 113 117 148
203 427 268 108 118 143
201 428 264 49 67 130
202 428 264 46 67 127
202 428 265 51 63 128
202 429 264 86 101 132
202 429 265 73 90 129
203 429 265 86 102 131
203 428 266 74 88 131
203 428 267 115 126 147
203 429 266 98 111 137
203 429 267 134 142 155
202 430 264 128 132 146
202 430 265 117 126 146
202 431 264 147 147 154
202 431 265 139 143 154
203 430 265 105 117 139
203 431 265 127 136 150
203 430 266 108 121 139
203 430 267 130 138 152
203 431 266 113 126 143
203 431 267 122 133 149
204 425 269 121 126 158
204 424 270 130 136 168
204 424 271 139 144 172
204 425 270 122 129 160
204 425 271 127 134 164
205 424 271 138 143 171
205 425 270 117 124 154
205 425 271 120 127 157
204 426 268 116 121 151
204 426 269 118 122 150
204 427 268 112 121 145
204 427 269 112 120 142
205 427 269 111 117 140
204 426 270 117 122 152
205 426 270 117 121 149
205 426 271 118 123 151
205 427 270 114 118 143
205 427 271 115 117 144
206 426 271 115 119 146
206 427 271 117 119 143
204 429 267 147 151 161
204 430 267 143 149 160
204 431 267 126 136 150
204 428 268 126 135 152
204 428 269 112 122 142
204 429 268 139 147 159
205 428 269 109 119 142
205 429 268 125 137 153
205 429 269 91 110 136
205 428 270 108 115 139
205 429 270 88 103 134
204 430 268 133 142 156
204 431 268 113 127 147
205 430 268 100 119 143
205 430 269 74 98 133
205 431 268 84 107 138
205 431 269 64 90 131
206 428 270 107 115 138
206 428 271 115 119 141
206 429 270 89 104 134
206 429 271 105 115 140
207 429 271 109 118 141
206 431 269 60 84 130
206 430 270 77 96 133
206 430 271 94 108 138
206 431 270 76 95 135
207 430 271 94 108 135
207 431 271 81 97 129
