ply
format ascii 1.0
comment Version 2, Copyright 2017, 8i Labs, Inc.
comment frame_to_world_scale 0.179523
comment frame_to_world_translation -45.2095 7.18301 -54.3561
comment width 1023
element vertex 282
property float x
property float y
property float z
property uchar red
property uchar green
property uchar blue
end_header
192 481 59 89 107 127
192 482 59 76 99 121
192 483 59 77 100 122
193 483 59 75 97 118
192 480 60 88 108 128
192 481 60 81 103 124
193 480 60 81 103 125
193 480 61 71 98 121
193 481 60 80 101 121
192 482 60 75 98 119
193 482 60 76 97 118
193 483 60 71 93 115
194 480 61 71 96 118
194 481 60 77 99 120
194 481 61 72 95 117
195 480 61 74 98 120
195 481 61 71 95 117
195 480 62 78 101 122
195 481 62 75 98 119
194 482 60 71 93 113
194 483 60 73 94 114
195 482 61 78 98 117
195 483 60 81 100 120
195 483 61 87 104 123
195 482 62 81 102 122
192 484 59 86 105 124
192 485 58 92 108 126
192 485 59 91 108 126
193 484 59 77 98 119
193 485 59 85 104 122
192 486 58 84 103 123
192 487 58 63 91 116
193 486 59 78 99 120
193 487 58 54 84 112
193 487 59 55 82 111
194 484 59 80 101 121
194 485 59 84 103 123
194 486 59 72 94 116
194 487 59 52 80 107
195 486 59 68 90 112
195 487 59 57 84 108
194 484 60 78 100 122
194 485 60 82 103 124
195 484 60 86 106 127
195 484 61 87 106 126
195 485 60 83 104 125
195 486 60 73 94 116
196 480 62 75 99 121
196 480 63 88 106 124
196 481 62 86 103 121
196 481 63 90 105 123
197 480 63 96 109 125
197 481 63 99 111 126
196 482 61 90 105 123
196 483 61 90 107 124
196 482 62 92 107 125
196 483 62 96 109 125
197 482 62 100 112 127
197 482 63 101 113 127
197 483 62 96 110 126
197 483 63 103 115 129
198 481 63 105 115 127
198 482 63 108 118 131
198 483 63 104 117 131
199 483 63 96 111 127
196 484 61 89 108 128
196 485 60 82 103 124
196 485 61 84 105 126
197 484 61 83 104 125
197 485 61 72 97 121
197 484 62 92 108 126
196 486 60 73 95 118
196 487 60 60 87 112
197 486 60 69 92 117
197 486 61 71 94 120
197 487 60 58 86 114
198 485 61 70 95 120
198 484 62 87 105 124
198 484 63 92 108 125
198 485 62 75 99 121
199 484 63 88 106 123
199 485 62 75 98 119
199 485 63 78 101 121
198 486 61 70 93 119
198 487 60 57 85 113
198 487 61 62 88 114
199 486 61 73 95 118
199 487 61 66 92 115
199 486 62 74 96 118
199 487 62 73 94 116
192 494 55 105 113 123
192 495 54 117 120 126
192 495 55 113 117 125
193 494 55 111 117 126
193 495 55 112 118 127
194 494 55 105 113 124
194 495 55 104 113 124
195 495 55 102 110 122
196 495 55 96 107 120
192 488 57 42 76 107
192 489 57 75 92 113
193 489 57 93 103 120
192 488 58 43 77 108
192 489 58 58 80 107
193 488 58 43 71 106
193 488 59 42 71 107
193 489 58 62 85 110
192 490 57 111 117 127
192 491 56 121 123 129
192 491 57 119 122 130
193 490 57 113 119 129
193 491 57 113 119 129
193 490 58 100 112 126
194 488 59 48 76 107
194 489 58 80 99 119
194 489 59 75 94 115
195 488 59 61 85 111
195 489 59 81 99 118
194 491 57 99 111 125
194 490 58 97 112 128
194 491 58 99 111 126
195 490 58 94 109 125
195 490 59 93 108 124
195 491 58 96 109 124
192 492 56 112 117 124
192 493 56 107 113 123
193 492 56 109 116 125
193 492 57 110 117 127
193 493 56 110 116 126
193 494 56 112 118 128
194 492 57 103 113 125
194 493 56 109 115 125
194 493 57 109 116 125
195 492 57 105 114 125
195 493 57 107 114 124
195 492 58 100 111 124
194 494 56 107 114 124
195 494 56 104 111 122
195 494 57 107 113 122
195 495 56 97 108 120
196 488 59 59 86 113
196 489 59 78 99 119
197 489 59 69 95 118
196 490 58 85 102 120
196 490 59 82 101 120
196 491 58 88 103 120
196 491 59 84 101 119
197 490 59 74 97 117
197 491 59 80 98 117
198 490 59 75 97 117
198 491 59 78 97 117
196 488 60 55 85 113
197 488 60 60 88 116
197 489 60 69 95 117
198 488 60 62 90 114
198 489 60 66 92 114
199 488 60 70 94 115
199 488 61 67 92 115
199 489 60 69 93 114
198 490 60 67 93 116
199 490 60 70 94 115
199 491 60 78 98 117
196 493 57 98 107 119
196 492 58 90 104 119
196 493 58 93 105 119
197 492 58 83 99 115
197 492 59 83 99 116
197 493 58 84 99 115
196 494 56 90 103 117
196 494 57 92 104 118
196 495 56 88 102 118
197 494 57 83 99 116
197 495 56 88 101 116
197 495 57 83 99 115
197 494 58 84 100 117
198 492 59 81 99 117
198 493 58 83 98 115
198 493 59 80 97 115
199 492 59 81 99 117
199 493 59 87 102 119
198 495 57 90 103 117
199 495 57 88 102 119
198 494 58 84 100 116
199 494 58 83 100 118
199 494 59 94 108 123
199 495 58 86 102 119
199 492 60 82 100 118
200 485 63 79 101 122
201 485 63 84 104 125
200 486 62 74 95 117
200 486 63 75 97 118
200 487 62 69 94 117
201 486 63 78 99 120
201 487 62 66 94 119
201 487 63 70 95 118
202 486 63 75 97 119
202 487 63 70 96 119
200 488 61 67 93 116
200 489 61 74 96 115
201 489 61 68 93 115
200 488 62 64 93 119
201 488 62 61 92 118
201 488 63 63 94 119
201 489 62 61 91 116
200 490 60 78 97 117
200 490 61 76 96 116
200 491 60 87 103 120
201 490 61 78 98 116
201 491 60 93 107 122
201 491 61 92 106 121
202 488 63 62 93 118
202 489 62 64 92 115
202 489 63 62 90 115
203 488 63 65 92 116
203 489 62 74 95 115
203 489 63 75 96 116
202 490 61 89 104 120
202 491 61 101 111 124
203 491 61 110 117 127
202 490 62 85 101 118
203 490 62 90 104 118
203 490 63 81 99 117
203 491 62 110 116 126
200 492 59 94 106 120
200 493 59 96 108 121
201 493 59 101 111 123
200 494 58 97 109 123
200 494 59 98 109 123
200 495 58 96 108 121
201 494 59 98 109 123
201 495 58 98 108 120
201 495 59 98 109 122
202 494 59 98 109 122
202 495 59 99 109 121
203 495 59 104 113 124
200 492 60 92 106 121
201 492 60 99 110 123
201 493 60 101 111 123
202 492 60 106 114 126
202 492 61 109 116 126
202 493 60 104 113 124
203 492 61 112 118 126
203 493 60 109 116 127
203 493 61 114 119 128
203 492 62 114 119 127
202 494 60 100 110 123
203 494 60 106 114 125
203 495 60 106 115 126
204 488 63 66 93 115
204 489 63 78 99 118
204 490 63 88 103 119
204 491 62 116 120 129
204 491 63 114 120 129
205 490 63 92 105 120
205 491 63 117 121 129
206 491 63 119 123 130
204 493 61 113 118 127
204 492 62 120 123 131
204 493 62 115 120 129
205 492 62 119 123 131
205 492 63 120 124 131
205 493 62 111 118 127
204 494 60 106 114 124
204 494 61 108 115 126
204 495 60 106 113 123
204 495 61 105 113 123
205 494 61 110 116 126
205 495 60 113 118 125
205 495 61 110 115 124
205 494 62 111 118 127
206 492 63 114 119 127
206 493 62 114 119 128
206 493 63 113 118 127
207 492 63 114 119 127
207 493 62 115 120 128
207 493 63 114 119 127
206 494 61 110 116 125
206 495 60 118 121 127
206 495 61 114 119 126
207 495 61 117 121 127
206 494 62 111 117 126
207 494 62 112 117 125
