ply
format ascii 1.0
comment Version 2, Copyright 2017, 8i Labs, Inc.
comment frame_to_world_scale 0.179523
comment frame_to_world_translation -45.2095 7.18301 -54.3561
comment width 1023
element vertex 210
property float x
property float y
property float z
property uchar red
property uchar green
property uchar blue
end_header
199 611 208 93 119 150
199 612 208 90 115 147
199 613 208 98 121 151
199 614 208 95 119 150
199 615 208 82 108 141
198 617 208 101 122 146
199 616 208 88 109 140
199 617 208 93 113 139
199 617 209 94 111 133
198 618 208 106 123 144
198 619 208 126 134 149
199 618 208 103 119 139
199 618 209 112 122 138
199 619 208 127 134 148
199 619 209 137 140 151
197 620 208 160 159 164
197 621 208 164 160 164
197 622 208 162 159 162
197 623 208 160 156 159
198 620 208 151 151 159
198 621 208 160 157 162
198 621 209 153 151 157
199 620 209 151 151 158
199 621 209 147 147 153
199 620 210 152 150 156
199 621 210 145 144 150
198 622 208 161 157 161
198 622 209 155 152 157
198 623 209 161 157 160
198 623 210 161 157 160
199 622 210 149 147 152
199 623 210 158 154 158
199 623 211 158 154 158
200 608 208 122 145 172
200 609 208 120 142 169
201 608 208 118 141 168
201 608 209 118 140 165
201 609 208 115 138 166
201 609 209 114 137 163
200 610 208 113 135 162
200 611 208 74 102 136
201 610 208 103 128 156
201 610 209 99 125 154
201 611 208 72 104 134
201 611 209 90 116 142
202 608 209 126 143 164
202 609 209 108 131 159
203 608 209 135 147 166
203 608 210 133 144 162
203 609 210 97 120 148
202 610 209 98 124 153
202 611 209 98 123 148
202 610 210 104 128 155
202 611 210 101 125 149
203 610 210 102 126 153
203 611 210 112 133 157
200 612 208 57 90 127
200 613 208 73 103 137
200 613 209 72 103 136
201 612 209 80 108 137
201 613 209 74 104 135
200 614 208 99 123 151
200 614 209 95 120 148
200 615 209 103 125 150
201 614 209 85 112 141
201 615 209 104 126 150
201 614 210 82 110 139
201 615 210 100 122 146
202 612 209 99 121 146
202 612 210 100 123 148
202 613 210 107 128 152
203 612 210 102 125 149
203 612 211 105 128 152
203 613 211 114 133 154
202 614 210 93 117 143
202 614 211 103 125 148
202 615 210 99 119 141
202 615 211 107 124 144
203 614 211 103 123 145
203 615 211 100 118 138
203 615 212 113 126 144
204 608 210 133 143 160
204 609 210 81 108 138
204 609 211 66 100 132
205 608 211 138 148 165
205 609 211 96 121 147
204 610 210 89 115 144
204 610 211 110 132 156
204 611 211 118 138 161
205 610 211 107 130 155
205 611 211 122 141 164
206 608 211 152 160 174
205 610 212 112 134 158
205 611 212 122 141 163
206 608 212 135 148 167
206 609 212 100 126 153
207 608 212 127 142 162
207 609 212 104 129 155
206 610 212 111 134 159
206 611 212 117 137 160
207 610 212 115 137 162
207 610 213 112 134 159
207 611 213 115 136 158
204 612 211 109 130 154
204 613 211 116 134 154
204 612 212 108 130 153
204 613 212 118 135 155
205 612 212 120 138 160
205 613 212 121 137 157
205 613 213 124 139 159
204 614 212 111 127 148
204 615 212 127 138 153
204 615 213 150 154 165
205 614 212 123 137 157
205 614 213 127 141 159
205 615 213 148 154 167
206 612 212 126 143 164
206 612 213 128 144 165
206 613 213 125 142 162
207 612 213 132 147 169
207 613 213 128 144 165
206 614 213 130 143 162
206 615 213 149 157 170
207 614 213 123 140 161
207 615 213 136 147 165
200 616 209 104 122 144
200 617 209 107 119 135
200 617 210 121 127 139
201 616 210 119 131 147
201 617 210 137 140 150
200 618 209 127 132 142
200 619 209 139 142 151
200 618 210 140 142 149
200 619 210 155 153 159
201 618 210 152 151 157
201 618 211 159 157 162
201 619 211 163 159 163
202 616 210 117 129 146
202 616 211 134 140 152
202 617 211 153 154 161
202 618 211 163 160 165
202 619 211 163 160 164
202 617 212 155 155 162
203 616 212 149 151 160
203 617 212 159 157 163
202 618 212 159 157 163
202 619 212 162 159 164
203 618 212 155 153 159
203 618 213 151 150 156
203 619 212 156 155 161
203 619 213 163 161 167
200 620 210 156 154 159
200 620 211 158 154 158
200 621 210 150 148 154
200 621 211 153 151 155
201 620 211 162 158 162
201 621 211 159 155 159
200 622 211 159 155 159
200 623 211 164 159 163
201 620 212 166 161 165
201 621 212 168 163 166
200 623 212 169 165 168
201 622 212 172 167 169
201 623 212 178 172 175
201 623 213 180 175 178
202 620 212 170 166 169
202 620 213 177 172 175
202 621 212 177 171 173
202 621 213 181 175 177
203 620 213 179 174 178
203 621 213 182 176 180
202 622 212 178 172 175
202 622 213 181 175 179
202 623 213 183 177 180
203 622 213 180 175 179
203 623 213 181 177 181
204 616 212 159 159 167
204 616 213 165 164 171
204 617 212 166 163 168
204 617 213 163 160 165
205 616 213 171 170 176
205 617 213 170 167 172
204 618 213 153 151 157
204 619 213 162 161 167
205 618 213 164 162 168
205 619 213 173 170 176
206 616 213 170 170 179
206 617 213 176 173 179
207 616 213 157 161 172
207 617 213 170 169 175
206 618 213 181 177 181
206 619 213 184 180 183
207 618 213 186 180 184
207 619 213 186 180 183
204 620 213 181 176 181
204 621 213 181 176 179
205 620 213 185 179 184
205 621 213 181 176 179
204 622 213 172 169 174
204 623 213 174 172 178
205 622 213 164 162 168
205 623 213 170 168 174
206 620 213 186 181 184
206 621 213 182 176 180
207 620 213 184 179 183
207 621 213 185 179 182
206 622 213 172 168 173
206 623 213 177 173 178
207 622 213 183 178 181
207 623 213 185 179 182
