ply
format ascii 1.0
comment Version 2, Copyright 2017, 8i Labs, Inc.
comment frame_to_world_scale 0.179523
comment frame_to_world_translation -45.2095 7.18301 -54.3561
comment width 1023
element vertex 313
property float x
property float y
property float z
property uchar red
property uchar green
property uchar blue
end_header
192 688 213 117 132 150
192 688 214 116 131 148
192 689 214 110 128 148
193 688 214 116 131 148
193 688 215 117 132 150
193 689 214 112 130 150
193 689 215 112 131 151
192 690 214 110 130 152
192 691 214 110 130 152
192 691 215 116 136 157
193 690 214 111 131 152
193 690 215 112 133 155
193 691 215 120 140 162
194 688 214 111 127 146
194 688 215 112 130 149
194 689 215 114 133 154
195 688 215 110 130 151
194 690 215 117 137 159
192 692 215 111 132 154
192 693 215 114 136 159
193 692 215 116 137 160
192 694 215 116 137 160
195 688 216 113 133 154
195 689 216 117 137 159
194 690 216 121 141 163
194 691 216 125 144 166
195 690 216 128 147 169
195 691 216 129 149 171
195 691 217 128 148 169
193 692 216 125 145 168
193 693 216 130 150 171
192 694 216 120 141 163
192 695 216 126 146 168
192 695 217 134 153 174
193 694 216 132 150 172
193 694 217 136 154 175
193 695 217 136 154 175
194 692 216 126 146 168
194 692 217 131 151 173
194 693 216 136 154 174
194 693 217 139 157 179
195 692 217 125 145 168
195 693 217 140 160 182
194 694 217 135 154 176
194 695 217 131 151 174
195 694 217 134 155 178
194 695 218 126 147 171
195 694 218 132 154 178
195 695 218 128 151 176
196 688 216 124 145 168
196 689 216 127 148 171
196 689 217 125 148 174
197 688 216 120 144 168
197 688 217 122 149 176
197 689 217 131 155 181
196 690 216 128 148 171
196 690 217 127 148 171
196 691 217 127 147 170
197 690 217 129 151 174
197 690 218 139 159 182
197 691 218 133 155 178
198 688 217 125 153 181
199 688 217 129 155 182
198 688 218 131 158 186
198 689 218 138 161 186
199 688 218 132 158 186
199 689 218 140 163 190
198 690 218 140 162 186
198 691 218 131 156 183
199 690 218 140 163 188
199 691 218 124 154 183
196 692 217 122 144 167
196 692 218 129 150 173
196 693 218 142 163 187
197 692 218 136 156 178
197 693 218 153 173 196
196 694 218 135 160 187
196 695 218 131 157 184
197 694 218 137 163 190
197 695 218 126 156 185
197 695 219 127 155 183
198 692 218 138 160 184
198 693 218 152 173 197
199 692 218 134 160 188
199 693 218 153 173 196
199 693 219 153 173 198
198 694 218 145 169 195
198 694 219 140 165 192
198 695 219 130 158 185
199 694 219 153 173 197
199 695 219 149 170 195
192 696 216 116 140 163
192 696 217 122 145 169
192 697 216 104 132 158
192 697 217 128 150 174
193 696 217 134 153 174
192 697 218 137 157 179
193 696 218 135 154 175
193 697 218 141 159 181
192 698 217 131 152 175
192 698 218 133 153 176
192 699 218 123 146 170
193 698 218 137 157 180
193 699 218 116 144 171
194 696 218 127 148 171
194 697 218 144 163 186
195 696 218 120 144 169
195 697 218 138 162 188
195 697 219 137 163 191
194 698 218 143 163 187
194 698 219 140 162 187
194 699 218 127 152 179
194 699 219 130 156 183
195 698 219 149 172 199
195 699 219 139 165 193
192 700 218 124 151 179
192 700 219 133 162 191
192 701 218 130 155 182
192 701 219 131 158 186
193 700 218 117 147 176
193 700 219 127 158 188
193 701 219 126 159 190
192 702 219 132 157 184
192 703 219 124 152 180
193 702 219 126 157 188
193 703 219 119 152 183
194 700 219 126 158 188
194 701 219 120 155 188
195 700 219 133 162 191
195 701 219 115 152 186
194 702 219 116 153 187
194 703 219 110 148 182
195 702 219 117 156 191
195 703 219 111 150 185
196 696 218 125 151 176
196 696 219 141 162 186
196 697 219 142 167 194
197 696 219 156 174 196
197 697 219 170 188 211
196 698 219 141 170 200
196 699 219 138 168 198
197 698 219 141 171 202
197 699 219 132 164 196
198 696 219 152 170 193
198 697 219 159 178 202
199 696 219 144 165 189
199 697 219 141 164 189
198 698 219 133 164 195
198 699 219 121 156 189
199 698 219 125 155 185
199 699 219 118 151 182
196 700 219 135 163 192
196 701 219 114 151 185
197 700 219 138 164 192
197 701 219 134 162 190
196 702 219 132 166 199
196 703 219 126 161 194
197 702 219 138 166 195
197 703 219 127 158 189
198 700 219 128 156 183
198 701 219 145 169 195
199 700 218 119 148 176
199 700 219 117 147 176
199 701 218 141 164 191
199 701 219 150 172 199
198 702 219 140 165 192
198 703 218 125 153 182
198 703 219 126 155 184
199 702 218 146 168 194
199 703 218 125 153 181
200 688 218 140 163 189
200 689 218 145 167 193
201 688 218 138 163 191
201 689 218 142 166 193
200 690 218 145 167 193
200 691 218 129 158 186
201 690 218 145 166 191
201 691 218 141 163 188
202 688 218 123 157 189
202 689 218 130 160 191
203 688 218 108 147 182
203 689 218 115 151 185
202 690 218 136 161 187
202 691 218 139 160 184
203 690 218 127 156 185
203 691 218 135 158 183
200 692 218 127 157 187
200 693 218 151 172 198
200 693 219 151 172 197
201 692 218 131 157 184
201 693 218 137 160 186
200 694 218 149 169 192
200 694 219 155 173 196
200 695 218 147 167 190
200 695 219 151 171 195
201 694 218 140 161 185
201 695 218 137 159 183
202 692 218 134 157 182
202 693 218 132 155 181
203 692 218 134 157 182
203 693 218 132 157 183
202 694 218 135 158 182
202 695 218 137 159 183
203 694 218 135 159 186
203 695 218 136 160 185
204 688 218 108 144 175
204 689 218 114 148 180
205 688 218 138 159 183
205 689 218 128 154 181
204 690 218 128 156 184
204 691 218 132 156 182
205 690 218 131 156 183
205 691 218 129 154 180
206 688 218 142 161 185
206 689 218 136 159 183
207 688 218 132 157 184
207 689 218 131 158 186
206 690 218 131 156 181
206 691 218 127 153 179
207 690 218 129 156 183
207 691 218 126 154 181
204 692 218 122 150 177
204 693 218 119 149 179
205 692 218 113 145 175
205 693 218 97 137 171
204 694 218 126 155 185
204 695 218 130 157 186
205 694 218 108 146 179
205 695 218 115 150 182
206 692 218 117 147 176
206 693 218 99 139 173
207 692 218 120 150 179
207 693 218 107 144 178
206 694 218 98 141 177
206 695 218 101 143 179
207 694 218 98 142 178
207 695 218 96 141 178
207 695 219 98 142 178
200 696 218 126 155 185
200 696 219 137 163 189
200 697 218 122 154 184
200 697 219 129 157 185
201 696 218 120 149 178
201 697 218 111 147 179
200 698 218 127 156 186
200 698 219 128 157 186
200 699 218 124 153 183
200 699 219 123 153 183
201 698 218 123 154 184
201 699 218 130 156 183
202 696 218 128 153 180
202 697 218 114 146 177
203 696 218 136 159 185
203 697 218 130 156 183
202 698 218 127 155 184
202 699 218 132 158 185
203 698 218 124 153 182
203 699 218 131 158 186
200 700 218 117 148 178
200 701 218 111 144 175
201 700 218 129 155 183
201 701 218 116 150 181
200 702 218 115 148 178
200 703 218 112 145 175
201 702 218 119 153 185
201 703 218 115 151 183
202 700 218 128 155 184
202 701 218 107 144 177
203 700 218 130 158 186
203 701 218 111 146 179
202 702 218 114 149 182
202 703 218 128 159 191
203 702 218 113 148 180
203 703 218 128 158 188
204 696 218 126 154 182
204 697 218 124 154 184
205 696 218 108 145 178
205 697 218 98 143 179
204 698 218 119 152 184
204 699 218 119 152 184
205 698 218 101 147 186
205 699 218 109 151 187
206 696 218 96 139 175
206 697 218 75 133 175
206 697 219 68 131 173
207 696 219 92 138 174
207 697 219 72 132 174
206 698 218 82 141 183
206 698 219 79 139 183
206 699 218 107 154 194
206 699 219 99 149 189
207 698 219 83 140 183
207 699 219 103 149 189
204 700 218 127 156 185
204 701 218 121 152 183
205 700 218 114 150 184
205 700 219 107 147 181
205 701 218 123 154 184
205 701 219 116 150 182
204 702 218 121 153 184
204 702 219 124 156 187
204 703 218 127 158 188
204 703 219 128 158 189
205 702 219 123 156 187
205 703 219 127 159 190
206 700 219 96 143 180
206 701 219 101 144 180
207 700 219 100 145 182
207 701 219 92 141 179
206 702 219 104 146 182
206 703 219 121 158 191
207 702 219 86 139 179
207 703 219 108 152 190
