ply
format ascii 1.0
comment Version 2, Copyright 2017, 8i Labs, Inc.
comment frame_to_world_scale 0.179523
comment frame_to_world_translation -45.2095 7.18301 -54.3561
comment width 1023
element vertex 320
property float x
property float y
property float z
property uchar red
property uchar green
property uchar blue
end_header
193 672 39 157 65 84
192 672 40 99 130 162
192 673 40 105 66 106
193 672 40 142 73 100
193 673 40 156 33 78
192 674 40 145 61 98
192 675 41 159 93 108
193 674 40 145 51 74
193 675 40 157 124 124
193 675 41 178 163 160
194 672 40 170 35 54
194 673 40 160 65 74
195 672 40 167 65 69
195 673 40 192 160 150
194 674 40 185 161 153
194 675 41 203 199 201
195 674 40 205 191 188
195 674 41 200 191 194
195 675 41 180 179 191
192 676 41 166 133 128
192 677 41 201 190 190
193 676 41 201 197 201
193 677 41 176 173 190
193 678 41 174 171 187
192 678 42 203 197 201
192 679 42 202 197 205
193 678 42 187 183 196
193 679 42 202 195 206
194 676 41 181 184 199
194 677 41 152 156 177
195 676 41 152 159 185
195 677 41 170 174 193
194 678 41 183 181 195
194 678 42 197 193 202
194 679 42 205 198 206
195 678 42 197 193 204
195 679 42 206 197 206
196 672 40 169 129 126
196 673 40 203 187 186
197 672 40 190 178 186
197 673 40 202 193 197
197 673 41 201 193 200
196 674 41 197 187 192
196 675 41 186 183 195
197 674 41 198 191 199
197 675 41 201 194 202
198 672 40 188 180 191
198 672 41 195 188 198
198 673 41 194 188 197
199 672 41 193 190 200
199 673 41 187 181 191
198 674 41 196 189 198
198 675 41 202 195 202
199 674 41 189 184 193
198 675 42 200 194 203
199 674 42 196 190 199
199 675 42 196 191 200
196 676 41 186 184 200
196 677 41 195 193 207
197 676 41 200 195 204
196 677 42 201 197 207
197 676 42 196 191 202
197 677 42 191 187 201
196 678 42 200 194 205
196 679 42 184 177 185
197 678 42 180 180 194
197 679 42 177 175 190
198 676 42 194 189 200
198 677 42 183 183 198
199 676 42 194 189 201
199 677 42 189 186 200
199 677 43 190 187 200
198 678 42 179 180 196
198 679 42 179 179 196
198 679 43 186 184 199
199 678 42 187 185 198
199 678 43 190 187 199
199 679 43 190 187 201
192 680 42 203 193 202
192 681 42 177 174 184
193 680 42 202 195 204
193 681 42 196 190 196
193 681 43 196 189 195
192 682 43 156 161 178
192 683 43 169 172 193
193 682 43 199 193 200
193 683 43 205 197 205
194 680 42 207 198 207
194 681 42 206 197 208
194 681 43 207 198 207
195 680 42 201 192 200
195 681 43 206 198 207
194 682 43 209 199 208
194 683 43 202 195 206
195 682 43 202 194 204
195 683 43 185 180 194
192 684 43 195 192 207
193 684 43 204 197 209
194 684 43 175 176 192
195 684 43 172 171 190
192 685 44 204 198 207
193 684 44 187 185 202
193 685 44 182 180 197
192 686 44 199 193 200
192 687 44 203 195 203
193 686 44 192 187 200
193 687 44 203 196 205
194 684 44 162 168 190
194 685 44 163 169 191
195 684 44 164 168 189
195 685 44 177 179 198
194 686 44 188 186 201
194 687 44 204 198 208
195 686 44 193 191 205
195 687 44 201 195 206
196 680 42 191 185 192
196 680 43 202 195 202
196 681 43 206 199 203
197 680 42 193 188 199
197 680 43 198 192 202
197 681 43 205 197 204
196 682 43 201 194 201
196 683 43 199 191 202
197 682 43 204 197 204
197 683 43 205 197 205
198 680 43 196 192 203
198 681 43 201 195 204
199 680 43 194 191 203
199 681 43 197 193 202
198 682 43 203 196 204
198 683 43 206 199 206
197 683 44 206 198 205
199 680 44 189 187 200
199 681 44 195 191 202
198 682 44 201 196 205
198 683 44 204 197 205
199 682 44 198 194 204
199 683 44 201 195 205
199 683 45 202 197 207
196 684 43 192 186 200
196 684 44 199 193 205
196 685 44 198 193 206
197 684 44 200 193 204
197 685 44 184 182 199
196 686 44 190 188 203
196 687 44 188 185 201
196 687 45 195 190 204
197 686 44 172 173 195
197 687 44 170 173 193
197 687 45 183 182 199
198 684 44 197 192 204
198 685 44 187 184 201
199 684 44 198 193 204
199 684 45 199 194 205
199 685 45 197 192 205
198 686 44 175 175 197
198 686 45 183 183 202
198 687 45 193 192 207
199 686 45 195 193 207
199 687 45 193 192 206
200 672 41 184 181 192
200 673 41 186 182 192
200 672 42 182 181 193
200 673 42 187 184 195
201 672 42 181 180 192
201 673 42 182 181 193
200 674 42 192 187 197
200 675 42 194 189 199
200 675 43 194 190 200
201 674 42 188 185 195
201 674 43 185 184 195
201 675 43 191 188 199
202 672 42 184 182 194
202 672 43 184 183 194
202 673 43 181 181 194
203 672 43 177 177 188
203 673 43 174 176 188
202 674 43 183 182 194
202 675 43 189 187 199
203 674 43 176 177 190
203 672 44 166 168 181
203 673 44 166 168 180
202 675 44 185 183 194
203 674 44 172 173 186
203 675 44 174 174 186
203 675 45 174 175 185
200 676 42 196 191 201
200 676 43 195 191 201
200 677 43 194 190 201
201 676 43 194 190 201
201 677 43 194 190 201
200 678 43 192 189 201
200 679 43 189 186 200
201 678 43 194 190 201
201 677 44 193 189 200
200 679 44 185 184 198
201 678 44 191 189 200
201 679 44 185 184 198
202 676 44 191 187 198
202 677 44 192 189 200
202 677 45 194 190 201
203 676 44 190 186 196
203 676 45 183 181 191
203 677 44 192 189 199
203 677 45 188 186 195
202 678 44 194 191 201
202 679 44 190 187 200
202 679 45 192 189 201
203 678 45 190 188 198
203 679 45 186 187 199
204 672 44 162 163 173
204 673 44 162 164 176
204 673 45 162 165 176
205 672 45 160 162 171
205 673 45 160 162 172
204 674 44 165 167 179
204 674 45 164 166 178
204 675 45 169 170 181
205 674 45 161 163 175
205 675 45 161 163 174
205 674 46 157 159 171
205 675 46 163 164 175
206 672 45 158 159 168
206 672 46 155 157 166
206 673 46 151 154 165
207 672 47 154 155 164
207 673 47 150 153 163
206 674 46 152 156 167
206 674 47 154 157 168
206 675 46 157 160 172
206 675 47 154 159 172
207 674 47 152 155 166
207 675 47 150 157 171
204 676 45 174 174 183
204 677 45 177 177 187
204 676 46 173 173 183
204 677 46 175 175 186
205 676 46 165 167 179
205 677 46 169 171 183
204 678 45 180 181 191
204 678 46 174 176 188
204 679 46 171 174 189
205 678 46 166 170 184
205 679 46 159 167 183
206 676 46 158 163 175
206 676 47 152 158 172
206 677 46 164 168 180
206 677 47 150 158 173
206 678 47 150 159 175
206 679 47 147 160 178
207 678 47 142 154 172
200 680 43 189 187 200
200 680 44 183 183 200
200 681 44 191 189 202
200 681 45 193 191 203
201 680 44 185 185 199
201 680 45 193 191 204
201 681 45 193 191 207
200 682 45 201 196 208
200 683 45 202 197 207
201 682 45 200 196 207
201 683 45 201 196 206
201 683 46 204 198 207
202 680 45 188 187 201
202 681 45 195 192 205
203 680 45 180 181 197
202 681 46 188 187 201
203 680 46 171 175 192
203 681 46 177 179 195
202 682 45 194 191 203
202 683 45 196 192 203
202 682 46 191 189 203
202 683 46 200 195 207
203 682 46 184 185 201
203 683 46 197 194 208
203 683 47 194 191 204
200 684 45 201 196 206
200 685 45 198 194 206
201 684 45 202 197 207
200 685 46 197 194 206
201 684 46 201 195 205
201 685 46 194 191 203
200 686 45 196 194 208
200 687 45 185 186 203
200 686 46 191 191 205
200 687 46 174 177 198
201 686 46 187 187 203
201 687 46 178 180 198
202 684 46 200 194 206
202 685 46 197 192 206
202 685 47 198 193 206
203 684 47 200 196 207
203 685 47 197 195 207
202 686 46 195 192 207
202 686 47 197 194 208
202 687 46 187 189 205
203 686 47 189 190 207
203 687 47 174 182 205
204 680 46 169 173 189
204 681 46 166 172 190
205 680 46 157 165 183
205 680 47 160 168 186
205 681 46 159 168 188
205 681 47 161 169 189
204 682 46 173 180 197
204 683 47 178 183 199
205 682 46 168 176 194
205 682 47 167 176 195
205 683 47 160 173 195
206 680 47 147 161 181
206 681 47 150 163 185
206 682 47 149 164 186
206 683 47 143 162 188
204 684 47 202 198 211
204 685 47 180 184 202
205 684 47 171 180 200
205 685 47 161 173 195
204 686 47 167 177 200
204 687 47 159 173 201
205 686 47 152 168 195
