ply
format ascii 1.0
comment Version 2, Copyright 2017, 8i Labs, Inc.
comment frame_to_world_scale 0.179523
comment frame_to_world_translation -45.2095 7.18301 -54.3561
comment width 1023
element vertex 311
property float x
property float y
property float z
property uchar red
property uchar green
property uchar blue
end_header
196 944 160 83 67 49
196 944 161 93 77 62
196 945 160 93 77 59
196 945 161 97 80 65
196 944 162 93 77 62
196 944 163 90 72 59
196 945 162 92 75 60
196 945 163 90 72 61
196 946 160 99 83 68
196 946 161 94 77 63
196 947 160 93 77 65
196 947 161 82 64 53
196 946 162 88 71 57
196 946 163 87 70 58
196 947 162 81 63 52
196 947 163 87 72 59
196 944 164 89 71 56
196 944 165 92 76 63
196 945 164 91 75 61
196 945 165 95 80 68
196 944 166 94 78 65
196 944 167 93 78 65
196 945 166 92 77 65
196 945 167 89 74 61
196 946 164 91 77 65
196 946 165 91 78 67
196 947 164 92 78 66
196 947 165 90 76 65
196 946 166 86 71 58
196 946 167 85 69 55
196 947 166 86 71 58
196 947 167 87 72 58
196 948 160 81 62 52
196 948 161 78 60 51
196 949 160 80 63 51
196 949 161 83 68 57
196 948 162 85 70 58
196 948 163 90 76 65
196 949 162 89 74 65
196 949 163 90 76 67
196 950 160 85 70 58
196 950 161 89 75 64
196 951 160 90 75 61
196 951 161 90 75 62
196 950 162 91 76 65
196 950 163 90 76 66
196 951 162 92 78 66
196 951 163 94 80 69
196 948 164 91 77 65
196 948 165 88 74 62
196 949 164 91 77 65
196 949 165 90 75 63
196 948 166 87 73 59
196 948 167 87 73 60
196 949 166 89 74 61
197 948 167 87 73 60
197 949 167 85 70 57
196 950 164 92 78 65
196 950 165 92 76 64
196 951 164 94 80 67
196 951 165 90 74 59
196 950 166 88 73 60
196 951 166 90 74 61
197 950 167 85 70 58
197 951 167 88 73 62
196 944 168 91 75 61
196 944 169 90 73 60
196 945 168 86 70 56
197 944 169 89 71 58
197 945 168 83 67 53
197 945 169 85 69 56
197 944 170 89 72 61
197 944 171 87 71 61
197 945 170 84 67 56
197 945 171 83 66 56
196 946 168 84 68 53
197 946 168 86 69 57
197 946 169 86 70 59
197 947 168 88 74 62
197 947 169 87 72 60
197 946 170 82 66 54
197 946 171 81 65 56
197 947 170 82 66 55
197 947 171 79 64 54
198 947 170 80 64 53
198 947 171 79 63 52
197 944 172 85 68 58
197 944 173 84 67 55
197 945 172 81 65 54
197 945 173 81 64 52
197 946 172 80 63 54
198 944 173 84 66 54
198 945 173 82 64 52
198 944 174 85 68 56
198 944 175 88 71 58
198 945 174 83 66 53
198 945 175 85 67 55
198 946 172 79 63 52
198 946 173 81 65 53
198 947 172 80 64 53
198 947 173 85 70 59
198 946 174 86 70 57
198 946 175 91 76 63
198 947 174 91 76 64
198 947 175 96 81 69
199 947 175 97 82 70
197 948 168 86 72 59
197 948 169 85 70 57
197 949 168 85 70 57
197 949 169 85 70 57
197 948 170 81 66 54
197 949 170 81 65 54
197 950 168 85 71 60
197 950 169 86 71 60
197 951 168 86 72 62
197 951 169 82 67 59
197 950 170 84 68 58
198 948 170 81 65 54
198 948 171 83 69 58
198 949 170 82 67 57
198 949 171 83 68 58
198 951 169 78 61 53
198 950 170 84 68 59
198 950 171 83 68 59
198 951 170 79 62 54
198 951 171 78 62 53
198 948 172 87 72 61
198 948 173 90 75 65
198 949 172 84 68 58
198 949 173 83 67 57
198 948 174 93 78 67
198 949 174 86 69 59
199 948 174 93 78 66
199 948 175 94 79 67
199 949 174 86 70 59
199 949 175 86 69 57
198 950 172 81 65 55
198 950 173 81 64 53
198 951 172 78 62 53
198 951 173 80 63 53
198 950 174 83 66 56
199 950 174 83 66 55
199 950 175 83 65 52
199 951 174 82 66 54
199 951 175 82 65 52
196 952 160 91 74 57
196 952 161 96 81 68
196 953 160 98 81 67
196 953 161 99 83 69
196 952 162 98 83 70
196 952 163 96 81 67
196 953 162 97 81 67
196 953 163 95 79 66
196 954 160 99 82 69
196 954 161 95 78 63
196 955 160 94 76 61
196 955 161 95 78 63
196 954 162 95 78 63
196 954 163 94 78 65
196 955 162 96 80 66
196 955 163 92 76 61
196 952 164 93 78 64
196 952 165 92 77 64
196 953 164 94 78 65
196 953 165 94 79 65
196 952 166 93 78 66
196 953 166 94 78 66
197 952 166 93 78 66
197 952 167 89 74 64
197 953 166 91 76 64
197 953 167 85 70 59
196 954 164 92 77 63
196 954 165 92 76 63
196 955 164 92 75 62
197 954 165 90 74 61
197 955 164 91 75 61
197 955 165 88 72 59
197 954 166 89 73 61
197 954 167 81 66 57
197 955 166 84 68 58
197 955 167 79 64 55
198 955 167 76 60 53
196 956 160 96 78 63
197 956 160 99 83 70
197 956 161 96 80 68
197 957 160 98 83 72
197 957 161 89 73 63
197 956 162 90 73 61
197 956 163 89 72 59
197 957 162 85 69 59
197 957 163 87 71 60
198 957 163 86 71 61
198 958 160 84 67 56
198 958 161 83 66 57
198 959 160 81 65 55
198 959 161 82 66 56
199 959 160 79 62 53
199 959 161 80 63 54
198 958 162 85 69 61
198 958 163 83 68 59
198 959 162 81 66 57
198 959 163 81 67 56
197 956 164 88 72 58
197 956 165 84 69 57
197 957 164 86 70 58
197 957 165 84 69 58
197 956 166 79 64 55
198 956 165 80 65 56
198 957 164 83 68 57
198 957 165 76 61 52
198 956 166 74 57 49
198 956 167 72 56 48
198 957 166 70 52 45
198 957 167 71 55 47
198 958 164 79 64 54
198 958 165 70 53 45
198 959 164 76 61 50
198 959 165 68 52 44
199 959 164 70 55 44
199 959 165 70 54 46
198 958 166 69 53 45
198 958 167 73 57 49
199 958 166 72 57 49
199 958 167 75 60 53
199 959 166 75 61 52
199 959 167 78 64 55
197 952 168 81 66 56
197 952 169 75 58 50
197 953 168 76 61 52
197 953 169 73 57 49
197 954 168 78 63 54
197 954 169 77 62 55
197 955 168 77 61 53
198 952 169 72 55 47
198 953 169 76 60 53
198 952 170 73 57 48
198 952 171 76 60 51
198 953 170 77 63 54
198 953 171 79 65 56
198 954 169 77 62 55
198 955 168 75 60 53
198 955 169 74 58 50
198 954 170 75 60 52
198 954 171 76 61 51
198 955 170 75 59 48
198 955 171 77 61 49
198 952 172 78 62 53
198 952 173 79 64 53
198 953 172 81 65 57
198 953 173 82 67 57
199 952 173 81 65 55
199 953 173 84 67 57
199 952 174 83 67 55
199 952 175 86 70 58
199 953 174 86 70 59
199 953 175 87 71 59
198 954 172 79 62 52
198 954 173 80 64 54
198 955 172 79 63 50
199 954 173 81 64 52
199 955 172 80 63 50
199 955 173 80 64 50
199 954 174 83 65 52
199 954 175 83 65 51
199 955 174 81 64 48
199 955 175 82 64 48
198 956 168 73 58 50
198 956 169 73 59 49
198 957 168 74 59 50
198 957 169 75 60 50
199 957 169 76 60 48
198 956 170 76 60 48
198 956 171 78 62 50
199 956 170 77 61 47
199 956 171 78 61 48
199 957 170 79 63 48
199 957 171 83 67 53
199 958 168 76 61 51
199 958 169 78 62 49
199 959 168 79 64 53
199 959 169 85 70 57
199 958 170 85 70 56
199 958 171 89 74 60
199 959 170 91 76 63
199 959 171 88 71 58
199 956 172 80 63 49
199 956 173 82 65 51
199 957 172 86 69 56
199 957 173 87 70 57
199 956 174 86 70 55
199 956 175 87 71 57
199 958 172 85 69 56
199 958 173 83 65 53
200 955 175 84 67 52
200 959 171 85 68 54
200 957 173 89 72 59
200 956 174 92 76 63
200 956 175 93 76 64
200 957 174 92 75 62
200 957 175 92 74 62
200 958 172 82 64 51
200 958 173 85 66 54
200 959 172 81 63 50
200 959 173 85 66 52
200 958 174 87 68 53
200 958 175 89 69 55
200 959 174 87 67 51
201 958 175 92 72 59
201 959 174 92 73 59
201 959 175 98 79 66
202 959 175 100 81 67
