ply
format ascii 1.0
comment Version 2, Copyright 2017, 8i Labs, Inc.
comment frame_to_world_scale 0.179523
comment frame_to_world_translation -45.2095 7.18301 -54.3561
comment width 1023
element vertex 484
property float x
property float y
property float z
property uchar red
property uchar green
property uchar blue
end_header
198 919 135 178 127 104
199 919 134 163 126 105
199 919 135 149 109 85
195 919 141 124 89 63
195 919 142 137 91 66
195 919 143 136 80 63
199 915 141 161 98 74
199 915 142 158 94 77
199 915 143 149 86 69
196 919 136 102 81 66
196 919 137 101 82 69
197 919 136 140 100 81
197 919 137 109 86 71
196 919 138 99 82 71
196 919 139 100 85 69
197 918 139 105 83 59
197 919 138 102 80 64
197 919 139 100 83 64
199 917 139 116 79 53
198 919 136 141 105 85
198 919 137 124 90 70
199 919 136 130 97 77
199 919 137 146 95 62
198 918 138 120 83 52
198 918 139 115 83 55
198 919 138 124 85 62
199 918 138 128 87 54
199 918 139 106 77 53
197 917 142 150 88 68
197 917 143 144 78 60
196 919 140 110 87 66
196 919 141 126 90 63
197 918 140 120 87 62
197 918 141 141 93 67
197 919 140 111 86 63
196 918 143 143 76 61
196 919 142 140 94 64
196 919 143 140 75 60
197 918 142 151 94 71
197 918 143 145 78 61
198 917 140 138 88 64
198 917 141 156 94 69
199 916 140 144 85 57
199 916 141 157 94 68
199 917 140 132 83 55
198 916 142 157 95 76
198 916 143 146 80 63
198 917 142 153 91 71
198 917 143 144 79 61
199 916 142 160 97 78
199 916 143 148 85 67
198 918 140 129 85 62
193 922 135 126 96 75
193 923 135 137 113 90
194 921 134 144 114 90
194 921 135 142 116 90
195 920 135 112 94 76
195 921 134 143 117 92
195 921 135 126 104 81
195 922 133 138 113 89
195 923 133 149 123 95
194 922 134 127 100 73
194 922 135 133 102 81
194 923 134 143 118 93
193 924 135 138 114 91
195 924 133 132 102 76
195 925 133 101 76 64
194 924 134 132 104 82
194 924 135 132 105 82
194 925 135 105 77 63
195 924 134 132 102 79
195 925 134 98 72 60
194 926 135 91 70 55
194 927 135 98 79 64
195 926 134 82 61 49
195 926 135 88 66 53
195 927 134 100 81 65
195 927 135 98 79 63
197 920 128 160 128 98
197 920 129 158 127 97
197 921 128 153 124 93
197 921 129 153 123 92
197 920 130 155 125 97
197 921 130 152 123 93
197 921 131 144 115 85
197 922 128 149 121 92
197 922 129 148 120 91
197 923 129 138 111 88
196 922 130 150 124 97
196 922 131 152 126 99
196 923 131 138 110 83
197 922 130 145 118 91
197 923 130 136 108 84
198 920 128 158 127 98
198 920 129 158 127 100
198 921 128 152 123 93
199 920 128 156 125 99
199 920 129 155 127 104
198 920 130 155 127 103
198 920 131 151 121 99
199 920 130 149 120 98
199 920 131 145 115 93
198 922 128 153 125 97
198 923 128 142 115 90
198 923 129 139 112 93
196 921 132 134 106 80
196 921 133 146 118 91
197 920 132 139 112 93
197 920 133 130 104 86
197 921 132 137 110 85
197 921 133 138 114 95
196 920 134 117 96 77
196 920 135 99 79 62
196 921 134 146 122 98
197 920 134 138 107 85
197 920 135 121 89 71
196 922 132 146 121 97
196 923 132 144 117 90
198 920 132 155 116 95
198 920 133 128 97 75
199 920 132 146 106 86
199 920 133 127 95 74
198 920 134 127 97 76
198 920 135 132 96 76
199 920 134 129 95 73
197 924 131 114 91 71
197 925 131 85 68 55
197 926 131 82 59 50
198 924 128 130 104 87
198 924 129 121 97 75
199 924 128 121 97 74
199 924 129 115 90 62
199 925 128 104 81 61
199 925 129 104 83 62
198 924 130 112 90 67
198 924 131 100 82 65
198 925 130 96 78 63
198 925 131 90 72 59
199 925 130 101 81 64
199 926 128 99 83 73
199 926 129 94 76 65
199 927 129 102 81 63
198 926 131 83 61 51
198 927 131 93 75 62
199 926 130 87 68 58
199 927 130 100 81 65
196 924 132 121 94 75
196 924 133 117 90 69
196 925 132 90 72 59
196 925 133 91 71 59
197 925 132 81 64 53
196 926 133 80 58 51
196 927 133 92 72 57
197 926 132 82 60 49
197 927 132 91 71 60
196 927 134 99 81 64
198 927 132 92 73 62
193 921 137 137 112 86
193 921 138 129 105 79
193 922 136 126 98 77
193 922 137 125 98 75
193 923 136 127 104 79
193 923 137 117 94 70
193 922 138 124 100 77
193 922 139 121 99 77
193 923 138 106 84 63
193 923 139 108 84 63
194 921 136 138 114 89
194 921 137 118 97 73
195 920 136 94 78 61
195 920 137 93 76 62
195 921 136 116 96 74
194 921 138 106 86 63
194 921 139 103 82 60
195 920 138 95 78 65
195 920 139 96 81 66
194 922 138 125 102 75
194 922 139 119 96 71
193 922 140 118 96 74
193 922 141 115 92 72
193 923 140 108 83 58
193 923 141 112 85 62
193 922 142 114 88 67
193 922 143 110 88 64
193 923 142 115 87 68
193 923 143 111 84 63
194 921 140 102 82 59
194 921 141 108 84 60
195 920 140 103 83 67
195 920 141 115 83 63
194 921 142 112 82 58
194 921 143 112 81 58
195 920 142 126 85 63
195 920 143 127 81 64
194 922 140 115 94 71
194 922 141 112 91 67
194 922 142 109 85 58
194 922 143 108 85 59
193 924 136 138 115 93
193 924 137 138 115 94
193 925 136 113 88 72
193 925 137 114 90 71
193 924 138 129 106 84
193 924 139 120 97 71
193 925 138 122 98 73
193 925 139 126 101 79
193 926 136 96 76 59
193 926 137 98 78 64
193 927 136 93 75 59
193 927 137 92 74 58
193 926 138 105 84 70
193 926 139 111 89 74
193 927 138 92 75 58
193 927 139 96 78 60
194 925 136 103 78 66
194 926 136 93 73 59
194 927 136 91 71 56
193 924 140 113 89 59
193 924 141 109 83 53
193 925 140 125 104 82
193 925 141 118 97 75
193 924 142 111 86 64
193 924 143 109 84 63
193 925 142 109 87 65
193 925 143 107 84 62
192 927 141 110 88 70
193 926 140 113 91 73
193 926 141 120 98 80
193 927 140 102 83 65
193 927 141 111 91 72
192 927 142 117 94 77
192 927 143 118 94 79
193 926 142 122 100 83
193 926 143 123 100 83
193 927 142 118 95 77
193 927 143 123 99 82
196 920 136 98 77 62
196 920 137 99 79 65
197 920 136 115 89 72
196 920 138 99 83 72
200 919 128 158 129 104
200 919 129 150 123 102
201 919 128 156 129 103
201 919 129 145 120 97
200 919 130 142 115 94
200 919 131 144 109 84
201 919 130 125 100 80
201 919 131 114 88 69
202 919 128 145 113 86
202 919 129 132 103 78
203 919 128 139 104 72
203 919 129 127 94 66
202 919 130 115 87 64
202 919 131 108 79 60
203 919 130 113 82 55
203 919 131 116 82 56
201 919 132 112 82 65
201 919 133 113 74 71
200 919 134 150 97 74
200 919 135 122 83 63
201 919 134 118 73 66
201 919 135 130 77 62
202 919 132 112 76 63
202 919 133 111 73 63
203 919 132 119 79 61
203 919 133 116 76 60
202 919 134 109 67 63
202 919 135 123 71 66
203 919 134 114 72 60
203 919 135 120 73 64
204 919 128 131 91 56
204 919 131 126 85 62
205 919 131 139 89 68
204 919 132 130 84 63
204 919 133 127 81 60
205 919 132 145 87 67
205 919 133 143 85 66
204 919 134 134 81 56
204 919 135 133 75 57
205 918 135 120 70 44
205 919 134 142 81 57
205 919 135 109 68 48
206 917 135 114 71 45
207 917 134 107 73 49
207 917 135 103 70 45
206 919 133 145 87 66
207 918 133 113 76 52
207 919 132 146 94 70
207 919 133 145 93 68
206 918 134 104 68 45
206 918 135 118 71 43
206 919 134 126 76 52
207 918 134 110 73 49
207 918 135 102 68 43
201 912 141 153 90 75
201 913 140 155 86 53
201 913 141 157 92 74
201 912 142 149 85 68
201 913 142 151 85 70
201 913 143 154 90 74
200 914 141 162 98 77
200 915 140 153 92 64
200 915 141 161 97 73
201 914 140 160 91 60
201 914 141 163 98 81
201 915 140 155 88 55
200 914 142 156 91 76
200 914 143 146 82 66
200 915 143 147 84 66
201 914 143 152 90 72
202 912 141 155 83 64
202 913 140 152 76 47
202 913 141 169 83 48
203 912 141 162 87 63
202 912 142 147 77 59
202 912 143 152 84 63
202 913 142 161 77 51
202 913 143 159 85 60
203 912 142 173 94 57
203 912 143 167 94 60
203 913 143 172 99 63
202 914 140 158 80 42
202 914 141 176 89 43
202 915 140 168 83 40
202 915 141 185 100 60
202 914 142 172 88 51
202 914 143 163 79 47
202 915 142 187 105 64
202 915 143 185 102 63
203 914 143 180 104 62
203 915 143 194 111 61
200 916 139 147 93 60
200 917 139 133 85 57
201 917 139 170 98 61
200 918 137 165 102 76
200 919 136 146 94 71
200 919 137 180 109 81
201 918 137 158 96 73
201 919 136 141 81 65
201 919 137 150 81 54
200 918 138 154 96 71
200 918 139 138 88 67
201 918 138 158 93 61
202 918 137 135 75 46
202 919 136 124 73 63
202 919 137 126 69 46
203 919 136 120 70 60
203 919 137 124 65 47
202 918 138 142 80 38
202 918 139 142 79 33
203 918 138 127 58 35
203 918 139 135 68 36
203 919 138 127 60 36
203 919 139 132 62 33
200 916 140 144 87 57
201 916 140 161 90 54
201 917 140 165 88 49
202 916 140 168 80 44
202 916 141 180 92 56
202 917 140 163 83 42
202 917 141 173 86 50
202 916 142 188 103 65
202 916 143 191 106 70
202 917 142 175 86 53
202 917 143 184 96 59
203 916 143 194 107 62
203 917 143 174 84 54
202 918 140 146 71 26
202 918 141 155 71 36
203 918 140 136 69 35
203 918 141 149 67 44
203 919 140 136 60 38
203 919 141 143 61 38
202 918 142 161 75 47
203 918 142 157 74 50
203 918 143 163 75 51
207 913 139 135 78 49
207 915 137 101 71 48
206 915 139 145 75 43
207 914 139 128 74 45
207 915 138 104 69 39
207 915 139 133 74 48
204 912 142 164 86 40
204 912 143 163 92 59
204 913 142 168 91 50
204 913 143 168 96 58
205 912 142 156 74 34
205 913 142 159 77 38
205 915 141 166 82 44
204 914 142 175 98 55
204 914 143 178 101 60
204 915 142 184 101 56
204 915 143 189 106 62
205 914 142 165 84 40
205 915 142 173 90 48
206 912 141 140 63 28
206 913 141 143 64 28
207 912 140 141 79 48
207 912 141 139 68 31
207 913 140 140 73 42
206 912 142 149 65 25
206 914 140 145 74 46
206 914 141 147 66 22
206 915 140 153 76 45
206 915 141 158 76 42
207 914 140 142 73 43
205 917 139 154 78 48
204 918 137 130 68 39
204 919 136 127 71 53
204 919 137 131 60 38
205 918 136 123 73 44
205 918 137 128 72 41
204 918 139 138 61 39
204 919 138 131 56 37
204 919 139 134 59 38
205 918 138 142 71 39
205 918 139 150 73 47
206 917 136 108 72 46
206 917 137 102 70 48
207 916 136 102 70 46
207 916 137 104 70 48
207 917 136 102 70 45
206 916 138 118 72 48
206 916 139 142 73 41
206 917 138 118 73 48
206 917 139 147 78 48
207 916 138 113 71 42
207 916 139 129 74 41
206 918 136 116 73 45
206 918 137 122 74 44
206 918 138 128 76 47
205 916 140 161 79 47
205 916 141 171 87 55
205 917 140 157 80 48
205 917 141 170 85 48
204 916 142 187 100 56
204 916 143 195 107 62
204 917 142 172 86 48
204 917 143 176 89 47
205 916 142 174 89 53
205 917 142 174 87 47
204 918 140 148 70 47
204 918 141 152 72 50
204 919 140 138 62 45
205 918 140 158 82 55
205 918 141 163 84 53
204 918 142 160 77 50
206 916 140 157 77 43
200 920 128 157 129 104
200 920 130 145 115 94
200 920 131 138 106 82
203 920 129 126 87 54
203 920 130 113 75 43
203 920 131 110 73 46
200 920 132 125 93 71
200 920 133 142 98 73
201 920 132 113 78 62
201 920 133 117 78 65
200 920 134 146 108 87
202 920 132 111 76 60
203 920 132 114 75 57
200 926 128 101 84 72
200 927 128 103 81 61
204 920 128 132 90 50
204 920 129 127 83 46
205 920 128 134 92 57
205 920 129 133 89 56
204 920 130 125 81 51
204 920 131 129 85 59
205 920 130 136 89 62
205 920 131 142 91 69
206 920 128 134 92 63
206 920 129 137 93 66
206 921 128 133 92 63
207 921 128 131 90 67
207 921 129 133 90 62
206 920 130 139 92 65
206 920 131 143 91 70
207 920 130 138 93 66
207 920 131 139 91 67
207 921 130 138 94 67
205 920 132 145 87 69
206 920 132 147 91 72
207 920 132 143 93 68
