ply
format ascii 1.0
comment Version 2, Copyright 2017, 8i Labs, Inc.
comment frame_to_world_scale 0.179523
comment frame_to_world_translation -45.2095 7.18301 -54.3561
comment width 1023
element vertex 272
property float x
property float y
property float z
property uchar red
property uchar green
property uchar blue
end_header
218 305 64 131 133 139
219 304 64 136 136 142
219 305 64 133 134 140
219 305 65 134 135 141
218 306 64 133 134 141
218 307 64 134 135 143
219 306 64 133 135 141
219 306 65 134 135 142
219 307 64 131 134 142
219 307 65 128 132 141
218 308 64 131 134 142
218 308 65 123 128 139
218 309 64 124 129 139
218 309 65 122 129 140
219 308 65 125 130 140
219 309 65 121 129 141
219 309 66 123 131 143
218 310 64 122 129 140
218 310 65 121 128 141
218 311 64 118 127 140
218 311 65 119 129 142
219 310 65 123 131 144
219 311 65 120 129 142
219 310 66 121 130 143
219 311 66 117 127 141
219 311 67 106 119 135
220 304 64 136 136 142
220 304 65 135 135 140
220 305 65 135 136 142
221 304 65 136 136 141
221 305 65 137 137 143
220 306 65 134 135 142
220 307 65 126 131 140
220 306 66 132 135 142
221 306 66 134 136 143
221 307 66 128 131 141
222 304 65 136 136 141
222 305 65 137 137 143
223 304 65 135 135 140
222 305 66 138 138 144
223 304 66 135 135 141
223 305 66 137 137 143
222 306 66 136 137 144
222 307 66 129 133 141
222 307 67 128 132 141
223 306 66 135 137 143
223 306 67 131 134 142
223 307 67 128 132 142
223 307 68 124 130 141
220 308 65 125 130 140
220 308 66 125 130 141
220 309 66 123 130 143
221 308 66 124 130 141
221 309 66 122 130 142
221 309 67 119 127 140
220 310 66 121 129 142
220 310 67 116 126 141
220 311 66 115 125 140
220 311 67 108 121 137
221 310 67 114 125 140
221 311 67 106 120 136
222 308 66 125 130 140
222 308 67 124 130 141
222 309 67 122 130 143
223 308 67 124 130 141
223 309 67 121 129 143
222 310 67 116 127 141
221 311 68 105 119 136
223 308 68 121 129 141
223 309 68 118 128 142
222 310 68 108 121 137
222 311 68 107 121 138
222 311 69 107 121 139
223 310 68 113 124 139
223 310 69 106 120 136
223 311 69 106 120 137
223 310 70 104 118 135
223 311 70 104 118 135
223 311 71 100 117 134
223 311 77 79 93 112
223 310 78 86 91 107
223 310 79 86 87 102
223 311 78 83 90 109
223 311 79 83 84 104
217 314 64 98 113 130
217 314 65 103 116 132
217 315 64 99 114 131
218 312 64 110 122 136
218 312 65 112 123 139
218 313 64 103 116 132
218 313 65 106 120 135
218 312 66 110 122 138
218 313 66 104 118 135
219 312 66 107 120 137
219 312 67 102 118 135
219 313 66 101 116 134
219 313 67 100 116 134
218 314 64 99 113 130
218 314 65 103 117 133
218 315 64 100 115 132
218 315 65 103 117 134
218 314 66 107 121 137
218 315 66 108 121 137
218 315 67 100 115 132
219 314 66 106 120 138
219 314 67 101 117 134
219 315 66 107 121 138
219 315 67 100 116 133
219 315 68 96 114 133
219 315 69 93 112 132
217 316 64 96 112 130
217 316 65 99 114 131
217 317 64 91 107 126
217 317 65 89 106 124
217 316 66 100 114 131
217 316 67 96 111 128
217 317 66 91 108 126
217 317 67 95 109 125
217 318 64 91 108 126
217 318 65 92 108 124
217 319 64 97 111 127
217 319 65 101 113 129
217 318 66 93 107 123
217 318 67 97 107 122
217 319 66 102 113 128
217 319 67 100 110 123
218 316 65 100 115 132
218 316 66 97 112 129
218 316 67 94 110 127
218 317 66 92 107 125
218 317 67 95 108 125
219 316 67 94 111 129
218 318 67 99 109 124
218 319 67 93 104 119
218 316 68 92 110 129
218 316 69 95 112 131
218 317 68 96 108 125
218 317 69 95 109 126
219 316 68 95 113 132
219 316 69 95 114 133
219 317 69 95 112 130
218 317 70 90 107 125
219 317 70 89 110 131
218 318 68 97 105 120
218 318 69 92 100 115
218 319 68 91 91 103
218 319 69 86 82 96
218 318 70 85 99 117
218 319 70 84 85 103
218 319 71 85 95 111
219 318 70 87 109 129
219 318 71 87 109 130
219 319 71 84 103 122
220 312 67 102 118 135
220 314 67 98 114 132
220 312 68 103 118 135
220 313 68 100 116 133
221 312 68 104 119 136
221 313 68 99 115 133
221 313 69 99 115 133
220 314 68 99 115 132
220 314 69 94 111 129
220 315 68 94 112 131
220 315 69 92 111 130
221 314 68 99 114 132
221 314 69 95 112 130
221 315 69 90 109 128
221 315 70 89 108 127
222 312 68 104 119 137
222 312 69 103 118 136
222 313 69 98 115 132
223 312 69 102 118 136
223 313 69 99 115 133
223 312 70 101 117 135
223 312 71 96 114 132
223 313 70 96 114 132
223 313 71 94 112 132
222 314 69 96 112 131
222 314 70 94 112 130
222 315 70 93 112 131
222 315 71 97 115 135
223 314 70 96 114 133
223 314 71 94 114 134
223 315 71 95 115 136
220 316 69 91 112 131
220 316 70 89 111 132
220 317 70 86 110 132
221 316 70 87 109 131
221 317 70 83 109 133
221 317 71 83 109 132
220 318 71 82 108 130
220 319 71 83 107 129
221 318 71 81 110 134
222 316 70 87 109 130
222 316 71 89 112 133
222 317 71 82 107 129
219 319 72 81 102 121
223 312 72 88 108 128
223 312 73 81 104 126
223 313 72 87 108 129
223 313 73 87 109 130
223 312 74 79 103 126
223 313 74 88 111 132
223 313 75 85 109 131
223 314 72 88 110 131
223 314 73 85 109 131
223 315 72 90 113 135
223 315 73 83 111 135
223 314 74 84 110 134
223 314 75 83 109 133
223 315 74 81 109 134
223 315 75 82 110 135
223 312 76 77 100 121
223 312 77 70 91 111
223 313 76 79 104 126
223 313 77 74 98 120
223 312 78 73 86 106
223 312 79 80 87 107
223 313 78 69 91 112
223 313 79 75 95 114
223 314 76 81 107 131
223 314 77 79 105 129
223 315 76 80 109 134
223 315 77 78 106 132
223 314 78 78 102 124
223 314 79 76 99 120
223 315 78 76 102 127
223 315 79 75 100 123
220 318 72 79 105 128
220 319 72 77 104 127
221 318 72 78 108 132
221 319 72 76 107 133
221 319 73 78 107 133
221 319 74 79 108 133
222 316 72 82 107 130
222 317 72 77 104 129
222 317 73 75 104 130
223 316 72 86 110 133
223 316 73 77 107 133
223 317 73 73 104 131
222 317 74 74 105 132
223 316 74 78 109 135
223 316 75 80 111 137
223 317 74 74 106 133
223 317 75 77 109 136
222 318 72 74 104 130
222 318 73 76 107 132
222 318 74 78 109 135
222 318 75 76 108 135
222 319 74 80 111 137
222 319 75 80 112 138
222 317 76 79 110 137
222 317 77 77 108 135
223 316 76 79 109 135
223 316 77 76 106 133
223 317 76 78 109 136
223 317 77 78 109 135
222 317 78 74 106 132
222 317 79 74 105 132
223 316 78 74 103 129
223 316 79 73 102 127
223 317 78 76 106 133
223 317 79 74 104 130
222 318 76 76 109 136
222 318 77 76 109 135
222 319 76 76 108 136
222 319 77 76 108 135
222 318 78 75 106 133
222 318 79 75 105 131
222 319 78 77 108 135
222 319 79 76 106 132
223 318 79 76 106 132
