ply
format ascii 1.0
comment Version 2, Copyright 2017, 8i Labs, Inc.
comment frame_to_world_scale 0.179523
comment frame_to_world_translation -45.2095 7.18301 -54.3561
comment width 1023
element vertex 148
property float x
property float y
property float z
property uchar red
property uchar green
property uchar blue
end_header
208 624 63 70 97 122
208 625 62 75 99 122
208 625 63 75 100 124
208 626 63 86 109 132
208 627 63 97 113 133
209 627 63 103 118 135
208 628 62 104 118 136
208 628 63 111 123 140
208 629 62 106 117 133
208 629 63 109 121 135
209 628 63 114 125 140
209 629 63 118 127 141
208 630 61 122 129 141
208 631 61 129 135 147
209 631 61 126 133 145
208 630 62 116 125 137
209 630 62 124 131 144
209 631 62 125 133 145
210 628 63 117 128 142
210 629 63 122 129 141
211 629 63 120 127 139
210 631 61 127 132 142
210 630 62 125 131 142
210 630 63 124 131 142
210 631 62 123 129 139
211 630 62 118 125 136
211 630 63 121 128 139
211 631 62 114 121 133
212 629 63 113 122 134
213 629 63 108 118 131
212 630 62 119 125 137
212 630 63 119 125 136
212 631 62 119 125 135
213 630 63 122 127 136
213 631 62 125 129 137
214 630 63 125 128 137
214 631 62 130 134 142
214 631 63 132 134 142
208 639 55 128 132 140
208 633 59 127 133 145
209 633 59 127 133 144
208 634 58 131 137 148
208 634 59 130 135 146
208 635 58 130 134 144
209 634 58 127 133 143
209 634 59 128 132 142
209 635 58 127 132 142
210 634 59 123 129 140
210 635 58 122 127 136
210 635 59 122 126 136
211 634 59 121 127 137
211 635 59 121 125 133
208 632 60 126 134 145
208 632 61 131 137 149
208 633 60 128 134 146
209 632 60 133 141 155
209 632 61 128 134 145
209 633 60 129 135 147
210 632 60 129 134 144
210 632 61 125 130 141
210 633 60 127 133 143
211 632 61 116 123 134
211 633 60 118 124 134
211 632 62 111 119 131
211 634 60 121 127 137
208 636 57 128 133 143
208 637 56 125 130 139
208 637 57 125 131 142
209 636 57 130 136 146
209 637 57 127 132 142
208 636 58 131 136 147
209 636 58 127 131 140
209 637 58 127 133 143
208 638 56 127 131 140
208 638 57 124 128 137
208 639 56 126 129 138
209 638 57 122 127 137
209 639 56 123 127 136
209 639 57 119 123 133
209 638 58 121 128 140
210 636 58 124 128 136
210 637 58 123 127 136
211 636 58 121 125 133
211 636 59 123 126 135
211 637 58 125 127 136
211 637 59 127 129 137
210 638 57 117 122 131
210 639 57 118 124 134
210 638 58 122 128 139
211 638 58 127 131 140
211 639 58 123 127 137
212 634 59 121 125 133
212 635 59 123 126 134
212 632 61 120 126 136
212 633 60 122 126 136
212 633 61 125 128 137
213 632 61 126 129 138
213 633 61 127 130 139
212 632 62 111 119 131
213 632 62 123 127 136
212 634 60 124 127 136
212 635 60 124 127 134
213 634 60 126 129 137
213 634 61 128 132 141
213 635 60 130 132 141
214 633 61 133 136 146
214 632 62 130 134 143
214 632 63 135 138 147
214 633 62 131 136 146
214 633 63 140 142 152
214 634 61 130 135 145
214 635 61 135 137 145
214 634 62 133 138 148
214 634 63 139 142 152
214 635 62 141 143 151
215 634 63 143 144 152
215 635 62 145 146 153
215 635 63 149 149 156
212 636 59 122 126 134
212 637 59 125 128 136
213 637 59 125 129 138
212 638 58 127 129 137
212 638 59 127 129 136
212 639 58 128 130 137
212 639 59 129 130 137
213 638 59 128 130 137
213 639 59 133 134 141
212 636 60 124 127 136
213 636 60 129 133 142
213 637 60 131 135 145
213 638 60 134 137 146
213 639 60 147 148 156
214 636 60 135 140 150
214 636 61 137 139 148
214 637 61 132 137 148
214 636 62 139 141 150
214 636 63 152 153 162
214 637 62 137 140 150
215 636 62 149 150 157
215 636 63 151 151 159
215 637 63 149 151 161
214 638 61 128 133 144
214 639 61 148 149 158
214 638 62 138 142 152
214 639 62 149 150 158
214 639 63 153 153 162
215 638 63 146 149 159
215 639 63 151 152 161
