ply
format ascii 1.0
comment Version 2, Copyright 2017, 8i Labs, Inc.
comment frame_to_world_scale 0.179523
comment frame_to_world_translation -45.2095 7.18301 -54.3561
comment width 1023
element vertex 337
property float x
property float y
property float z
property uchar red
property uchar green
property uchar blue
end_header
213 595 48 87 140 180
213 595 49 78 136 178
214 592 48 98 132 162
214 593 48 102 138 169
214 593 49 94 140 176
215 592 48 78 123 157
215 592 49 79 131 169
214 593 50 95 141 179
214 593 51 86 135 173
215 592 50 84 137 176
215 592 51 83 136 176
215 593 50 85 136 175
215 593 51 78 129 167
214 594 48 93 138 175
214 594 49 90 140 179
214 595 49 82 138 180
214 594 50 94 142 179
214 594 51 102 143 178
214 595 50 79 134 174
214 595 51 77 130 168
215 592 52 81 135 176
215 592 53 77 135 177
215 593 52 73 122 161
215 593 53 76 120 158
215 592 54 81 136 176
215 592 55 84 140 181
215 593 54 78 126 164
215 593 55 79 130 168
214 594 52 102 139 173
214 594 53 91 132 166
214 595 52 78 129 168
214 595 53 86 134 171
215 594 53 74 111 150
214 594 54 78 128 166
214 594 55 88 136 174
214 595 54 91 138 175
214 595 55 96 143 181
215 594 54 64 116 156
215 594 55 71 125 164
213 596 48 81 136 177
213 596 49 76 135 177
213 597 48 75 129 170
213 597 49 76 132 174
213 596 50 79 135 176
213 596 51 75 133 174
213 597 50 83 137 178
213 597 51 80 137 179
212 598 48 87 137 176
212 598 49 86 138 178
212 599 48 92 143 182
212 599 49 89 141 180
213 598 49 80 135 175
212 598 50 77 132 172
212 598 51 67 124 165
212 599 50 98 143 180
212 599 51 86 132 170
213 598 50 81 136 176
213 598 51 69 129 171
214 596 51 70 130 171
213 596 52 73 132 174
213 596 53 80 136 176
213 597 52 81 139 181
213 597 53 89 142 182
213 596 54 95 144 182
213 596 55 98 145 183
213 597 54 95 144 182
213 597 55 96 144 182
212 599 52 79 127 166
212 599 53 70 126 165
213 598 52 72 132 174
213 598 53 75 133 174
213 599 52 61 115 160
213 599 53 75 132 172
212 599 54 75 134 176
212 599 55 85 141 182
213 598 54 83 139 180
213 598 55 90 144 184
213 599 54 77 137 179
213 599 55 83 141 184
214 596 52 69 129 171
214 596 53 76 132 173
214 596 54 85 138 177
214 596 55 97 144 182
215 592 56 82 141 184
215 592 57 86 142 183
215 593 56 86 139 179
215 593 57 85 142 184
215 593 58 91 142 181
215 593 59 94 142 180
214 594 56 88 137 175
214 594 57 78 133 173
214 595 56 100 144 180
214 595 57 94 142 180
215 594 56 83 135 173
215 594 57 85 138 179
214 595 58 81 133 172
214 595 59 77 123 156
215 594 58 84 141 182
215 594 59 89 141 180
215 593 60 101 146 183
214 595 60 97 110 125
214 595 61 111 96 112
215 594 60 98 139 171
215 594 61 106 125 145
215 595 60 94 121 142
215 595 61 112 99 116
215 594 62 118 90 105
215 595 62 127 63 91
215 595 63 151 91 104
213 597 56 91 140 178
213 597 57 88 139 176
213 597 58 99 129 156
212 599 56 89 131 163
212 599 57 99 115 136
213 598 56 92 142 179
213 598 57 89 135 169
213 599 56 96 141 176
213 599 57 98 128 154
213 598 58 102 108 133
213 598 59 126 47 100
213 599 58 119 95 104
213 599 59 141 79 94
214 596 56 95 140 178
214 596 57 105 150 186
214 597 57 89 141 179
214 596 58 120 152 180
214 596 59 115 130 148
214 597 58 105 127 154
214 597 59 129 111 136
213 598 60 136 72 91
213 598 61 146 118 112
213 599 60 152 121 115
213 599 61 163 151 144
213 599 62 170 165 166
213 599 63 172 170 176
214 596 60 109 94 108
214 596 61 122 66 99
214 597 60 137 92 111
214 597 61 142 93 108
214 596 62 138 79 109
214 596 63 148 119 126
214 597 62 146 119 124
214 597 63 155 150 152
215 596 62 148 87 114
215 596 63 165 141 140
215 597 63 156 147 148
214 598 60 136 78 94
214 598 62 154 144 140
214 598 63 168 165 169
214 599 62 167 163 166
214 599 63 174 171 177
211 600 48 89 141 181
211 600 49 82 139 180
211 601 48 87 139 179
211 601 49 84 140 182
211 600 50 83 136 176
211 601 50 81 138 179
211 601 51 82 135 174
210 602 48 92 138 175
210 603 48 94 143 182
210 603 49 85 140 182
211 602 48 86 137 176
211 602 49 88 141 182
210 603 50 79 137 179
211 602 50 88 143 183
211 602 51 88 141 181
211 603 50 79 132 175
211 603 51 78 129 168
211 601 55 91 115 138
211 602 52 93 143 182
211 602 53 103 144 178
211 603 52 96 134 165
211 603 53 100 124 149
211 602 54 111 134 156
211 602 55 97 108 126
211 603 54 109 108 126
211 603 55 110 74 96
209 606 48 86 133 169
209 607 48 96 136 169
209 607 49 102 138 168
209 607 50 104 126 148
209 607 51 123 91 107
210 604 48 89 145 187
210 604 49 93 147 188
210 605 48 91 142 182
210 605 49 90 141 181
210 604 50 94 144 182
210 604 51 111 143 172
210 605 50 102 142 175
210 605 51 119 141 163
210 606 48 85 135 172
210 606 49 96 139 173
210 606 50 102 132 158
210 606 51 109 111 132
210 607 50 106 125 144
210 607 51 120 108 123
209 607 52 143 48 83
209 607 53 141 66 99
209 607 54 144 121 125
209 607 55 162 159 160
210 604 52 82 104 121
210 604 53 93 81 102
210 605 52 118 124 133
210 605 53 117 97 108
211 604 52 78 114 140
211 604 53 96 99 122
210 605 54 122 78 100
210 605 55 128 84 100
211 604 54 116 72 105
211 604 55 131 71 100
211 605 55 128 75 98
210 606 52 118 87 108
210 606 53 133 91 109
210 607 52 130 52 90
210 607 53 136 68 101
210 606 54 130 91 109
210 606 55 139 118 127
210 607 54 129 100 111
210 607 55 143 138 139
212 600 49 82 138 178
212 600 50 84 137 176
212 600 51 102 143 179
212 601 51 79 134 174
212 600 52 112 149 183
212 600 53 101 144 179
212 601 52 88 138 177
212 601 53 100 145 182
212 600 54 96 143 180
212 600 55 97 141 177
212 601 54 111 148 180
212 601 55 108 139 166
212 602 54 110 142 171
212 602 55 98 121 145
211 602 56 106 72 102
211 602 57 123 91 111
211 603 56 131 88 106
211 603 57 149 130 134
211 603 58 165 158 158
211 603 59 177 174 179
211 603 60 174 175 184
211 603 61 169 172 183
209 607 56 172 169 172
210 605 56 131 103 109
211 604 56 152 115 125
211 604 57 168 157 155
211 605 56 145 125 127
211 605 57 170 165 165
210 605 59 178 176 182
211 604 58 181 177 180
211 604 59 181 179 186
211 605 58 181 178 183
211 605 59 181 179 186
210 606 56 157 151 154
210 606 57 171 170 176
210 607 56 172 168 173
210 607 57 174 172 178
211 606 57 166 164 168
210 606 58 168 167 173
210 606 59 164 162 169
210 607 58 165 166 175
210 607 59 166 167 176
211 606 58 176 173 178
211 606 59 170 168 174
209 607 61 163 164 173
209 607 62 161 162 172
210 605 60 179 177 183
210 605 61 182 179 184
211 604 60 176 177 186
211 604 61 176 176 186
211 605 60 180 179 186
211 605 61 180 178 185
211 604 62 176 176 185
211 604 63 168 169 178
211 605 62 182 179 183
211 605 63 176 174 181
210 606 60 172 169 175
210 606 61 179 175 179
210 607 60 167 167 175
210 607 61 165 163 169
210 606 62 183 177 181
210 606 63 182 179 185
210 607 62 167 166 173
210 607 63 174 174 181
211 606 63 181 179 185
212 600 56 96 127 153
212 600 57 109 102 116
212 601 56 112 124 142
212 601 57 121 108 119
212 600 58 132 83 85
212 600 59 153 123 122
212 601 58 139 112 116
212 601 59 155 142 141
213 600 58 136 82 86
213 600 59 146 101 102
212 602 56 105 98 123
212 602 57 130 103 122
212 602 58 150 138 140
212 602 59 170 166 170
212 603 59 177 175 180
212 601 60 171 166 166
212 601 61 175 172 178
213 600 60 161 146 139
213 600 61 177 170 170
213 601 61 178 175 180
212 601 62 182 179 185
213 600 62 180 177 182
213 600 63 179 177 184
213 601 62 181 178 184
213 601 63 181 180 188
212 602 60 173 172 179
212 602 61 165 166 174
212 603 60 173 173 182
212 603 61 166 169 179
212 602 62 174 173 180
212 602 63 179 175 180
212 603 62 172 173 183
212 603 63 171 171 178
212 604 63 167 168 178
216 592 56 81 139 181
216 592 57 83 138 179
216 592 58 80 135 175
216 592 59 83 133 172
216 592 60 99 143 178
216 592 61 109 149 184
216 593 60 100 144 180
216 593 61 108 143 173
217 592 61 108 148 182
216 593 62 106 123 147
216 593 63 119 104 128
217 592 62 113 146 176
217 592 63 115 140 164
217 593 62 107 134 158
217 593 63 110 113 134
216 594 61 109 143 172
216 594 62 107 102 119
216 594 63 132 85 107
216 595 63 156 114 120
