ply
format ascii 1.0
comment Version 2, Copyright 2017, 8i Labs, Inc.
comment frame_to_world_scale 0.179523
comment frame_to_world_translation -45.2095 7.18301 -54.3561
comment width 1023
element vertex 329
property float x
property float y
property float z
property uchar red
property uchar green
property uchar blue
end_header
211 708 215 99 89 100
211 709 215 109 81 93
210 711 215 141 70 65
211 710 215 125 77 85
211 711 214 133 78 77
211 711 215 136 78 78
213 704 215 71 82 112
213 705 215 64 76 112
212 707 215 59 82 112
213 706 215 58 70 110
213 707 214 56 71 109
213 707 215 57 71 110
214 704 215 72 87 108
214 705 214 68 80 101
214 705 215 76 88 111
215 704 214 64 48 66
215 704 215 74 67 82
215 705 214 58 55 74
215 705 215 63 72 87
214 707 213 55 65 94
215 707 213 56 57 79
214 706 214 62 78 102
214 707 214 57 74 102
215 706 214 53 59 76
215 707 214 52 59 83
213 709 213 57 62 101
212 708 214 66 75 100
212 708 215 76 85 104
212 709 214 81 80 103
212 709 215 100 85 101
213 708 214 57 66 105
213 708 215 55 68 105
213 709 214 62 64 104
213 710 213 62 60 100
213 711 213 75 64 95
212 710 214 104 90 106
212 710 215 112 94 109
212 711 214 120 92 98
213 710 214 77 73 102
213 711 214 95 81 95
214 708 213 56 61 93
214 709 213 55 59 93
215 708 213 58 56 80
215 709 213 65 56 82
214 708 214 58 70 102
214 710 213 61 58 95
214 711 213 61 52 93
215 710 213 72 58 83
215 711 213 77 59 83
208 704 219 97 146 185
208 705 219 93 144 184
209 704 219 110 154 191
209 705 219 108 151 186
208 706 219 78 136 178
208 707 219 90 143 183
209 706 218 108 148 181
209 706 219 84 138 178
209 707 218 100 133 162
211 704 217 83 116 145
211 705 217 98 121 147
210 704 218 116 149 178
210 704 219 116 154 188
210 705 218 123 152 179
211 704 218 105 134 161
211 705 218 112 137 163
210 706 217 99 119 143
210 707 217 100 94 117
211 706 217 89 108 134
211 707 216 80 98 120
211 707 217 93 96 118
210 706 218 117 143 168
210 707 218 105 121 143
209 708 217 145 115 128
209 709 217 147 83 101
208 708 218 112 140 168
208 708 219 101 147 183
208 709 218 120 123 146
209 708 218 133 134 150
209 709 218 142 96 108
208 711 217 126 90 104
209 710 217 157 91 108
209 711 216 157 85 93
209 711 217 154 81 94
208 710 218 120 99 121
208 711 218 110 80 102
209 710 218 148 80 99
210 708 216 125 91 103
210 708 217 121 96 111
210 709 216 125 86 96
210 709 217 140 80 95
211 708 216 103 90 104
211 709 216 118 80 86
210 710 216 134 78 86
210 711 216 143 71 72
212 704 217 69 96 126
212 705 216 54 82 118
212 705 217 59 91 124
213 704 216 58 75 109
213 705 216 51 74 112
212 706 216 61 87 119
212 707 216 71 95 118
213 706 216 51 75 112
209 713 215 161 78 85
209 714 215 162 57 68
209 715 215 165 58 66
210 712 215 135 58 59
210 713 215 142 57 62
211 712 214 128 64 63
211 712 215 131 63 55
211 713 214 124 54 55
211 715 213 128 41 56
210 714 214 139 50 62
210 714 215 148 56 68
210 715 214 148 47 50
210 715 215 154 41 46
211 714 214 131 50 57
211 715 214 134 40 51
208 716 215 163 62 65
208 717 215 156 61 65
209 716 214 149 43 48
209 716 215 162 56 58
209 717 214 142 41 48
209 717 215 152 52 57
208 718 215 155 73 80
208 719 215 144 59 65
209 718 214 143 49 56
209 718 215 149 59 65
209 719 214 146 56 55
209 719 215 143 55 52
211 716 213 131 31 46
211 717 213 139 43 52
210 716 214 141 43 45
210 717 214 138 43 47
211 716 214 136 38 44
210 719 213 146 54 69
211 718 213 140 43 58
211 719 213 150 59 67
210 718 214 138 44 58
210 719 214 144 54 65
212 712 213 119 74 89
212 713 213 115 66 84
213 712 213 85 67 94
213 713 213 98 67 96
212 712 214 122 76 84
212 713 214 120 61 72
212 714 213 118 53 63
212 715 213 127 49 58
213 714 213 104 59 85
213 715 213 123 67 81
212 714 214 119 51 60
214 712 213 62 50 94
214 713 213 71 51 102
215 712 213 75 54 90
215 713 213 70 46 103
214 714 213 75 48 102
214 715 213 92 53 95
215 714 213 67 41 108
215 715 213 76 41 99
212 716 213 131 38 51
212 717 213 137 33 50
213 716 213 134 65 73
213 717 213 141 55 58
212 718 213 143 36 50
212 719 213 151 44 61
213 718 213 149 57 58
213 719 213 150 48 59
214 716 213 112 60 80
214 717 213 137 74 68
215 716 213 98 60 88
215 717 213 135 99 78
214 718 213 151 87 75
214 719 213 159 86 82
215 718 213 152 111 75
215 719 213 157 105 80
208 712 217 151 106 117
208 713 217 156 104 116
209 712 216 147 59 67
209 712 217 151 72 77
209 713 216 155 65 69
209 713 217 154 69 71
208 712 218 117 102 124
208 714 216 160 84 86
208 714 217 147 97 113
208 715 216 161 81 86
208 715 217 152 89 93
209 714 216 164 64 64
209 715 216 170 67 66
210 712 216 150 69 76
208 716 216 154 71 77
208 717 216 151 66 70
217 705 213 135 73 67
216 704 214 86 45 60
216 705 214 80 48 60
217 704 214 120 47 53
217 705 214 118 53 53
216 706 213 77 53 62
216 707 213 67 51 59
217 706 213 125 77 71
217 707 213 108 64 58
216 706 214 67 52 65
218 705 213 158 66 67
218 704 214 146 38 47
218 705 214 148 46 51
219 704 214 159 52 56
219 705 214 156 52 58
218 706 213 162 81 81
218 707 213 145 68 68
219 706 213 160 62 64
219 707 213 148 38 44
216 708 213 62 46 57
216 709 213 72 46 57
217 708 213 88 35 40
217 709 213 86 28 40
216 710 213 80 46 57
216 711 213 90 54 63
217 710 213 86 31 44
217 711 213 91 33 44
218 708 213 126 45 50
218 709 213 120 48 61
219 708 213 143 36 39
219 709 213 146 64 70
218 710 213 108 49 57
218 711 213 97 29 36
219 710 213 148 90 87
219 711 213 128 53 53
220 704 214 162 64 63
220 705 214 160 66 68
221 704 214 155 57 58
221 705 214 153 58 58
220 706 213 158 55 59
220 707 213 151 38 43
220 706 214 156 53 54
221 706 214 158 66 64
221 707 214 151 54 54
222 704 214 149 43 53
222 705 214 145 46 49
223 704 214 138 43 52
223 705 214 141 40 51
222 706 214 154 73 74
222 707 214 157 81 78
223 706 214 141 51 55
223 707 214 142 64 60
220 708 213 144 27 36
220 709 213 150 51 58
221 708 214 143 31 41
221 709 214 149 40 49
220 710 213 157 79 76
220 711 213 136 46 44
220 710 214 152 60 61
220 711 214 140 45 48
221 710 214 152 48 54
221 711 214 141 28 42
222 708 214 150 64 60
222 709 214 151 49 47
223 708 214 144 65 56
223 709 214 152 62 53
222 710 214 152 43 49
222 711 214 146 34 47
223 710 214 146 50 49
223 711 214 145 48 50
216 712 213 93 53 77
216 713 213 92 52 102
217 712 213 97 37 53
217 713 213 107 55 94
216 714 213 87 54 112
216 715 213 86 43 97
217 714 213 118 73 115
217 715 213 112 54 96
218 712 213 94 24 40
218 713 213 117 67 90
219 712 213 112 27 40
219 713 213 114 46 58
218 714 213 143 92 116
218 715 213 134 54 86
219 714 213 128 50 61
219 715 213 139 33 56
216 716 213 101 64 84
216 717 213 134 106 78
217 716 213 116 60 77
217 717 213 138 104 70
216 718 213 156 123 82
216 719 213 160 118 85
217 718 213 155 122 76
217 719 213 160 121 84
218 716 213 137 47 71
218 717 213 144 81 62
219 716 213 147 29 58
219 717 213 157 65 62
218 718 213 150 103 60
218 719 213 153 109 69
219 718 213 159 91 55
219 719 213 160 109 69
220 712 213 125 33 37
220 713 213 129 54 59
221 712 213 133 29 35
221 713 213 142 64 67
221 712 214 135 28 34
220 714 213 136 49 58
220 715 213 140 28 46
221 714 213 154 77 78
221 715 213 146 46 54
222 713 213 145 60 64
222 712 214 138 23 33
222 713 214 141 38 43
223 712 214 139 30 37
223 713 214 139 30 36
222 714 213 148 61 66
222 715 213 140 36 44
223 714 213 144 40 44
223 715 213 141 36 40
222 714 214 143 43 49
223 714 214 142 37 39
223 715 214 142 40 40
220 716 213 144 27 44
220 717 213 158 67 67
221 716 213 140 30 41
221 717 213 156 77 81
220 718 213 162 88 62
220 719 213 159 101 64
221 718 213 160 95 79
221 719 213 150 92 66
222 716 213 139 42 48
222 717 213 148 80 85
223 716 213 140 50 54
223 717 213 142 74 71
222 718 213 148 84 77
222 719 213 136 78 59
223 718 213 137 72 63
223 719 213 128 64 54
