ply
format ascii 1.0
comment Version 2, Copyright 2017, 8i Labs, Inc.
comment frame_to_world_scale 0.179523
comment frame_to_world_translation -45.2095 7.18301 -54.3561
comment width 1023
element vertex 137
property float x
property float y
property float z
property uchar red
property uchar green
property uchar blue
end_header
221 80 223 114 111 110
221 81 223 113 107 103
220 82 223 108 100 94
220 83 223 111 103 96
221 82 223 116 110 106
221 83 223 142 135 130
223 80 221 133 126 121
223 81 221 137 130 125
222 80 222 123 119 116
222 80 223 116 112 110
222 81 222 143 139 137
222 81 223 119 114 110
223 80 222 137 132 129
223 81 222 152 147 144
222 83 221 186 175 166
223 82 221 163 156 152
223 83 220 135 128 124
223 83 221 158 151 144
222 82 222 152 147 144
222 83 222 173 166 160
222 87 219 128 124 122
223 86 219 131 126 123
223 87 219 129 125 123
220 84 223 130 120 110
220 85 223 144 132 121
221 84 222 168 157 147
221 84 223 155 145 136
221 85 222 168 156 147
221 85 223 160 149 137
221 87 221 121 118 117
220 86 223 141 130 120
220 87 223 132 122 115
221 86 222 160 151 143
221 86 223 154 144 134
221 87 222 143 137 133
221 87 223 140 133 127
222 84 221 169 159 150
222 85 221 155 147 141
223 84 220 133 127 123
223 84 221 135 129 125
223 85 220 132 126 123
222 84 222 178 167 158
222 85 222 174 162 154
222 86 220 130 125 122
222 86 221 160 154 149
222 87 220 129 124 121
222 87 221 131 128 127
223 86 220 132 126 123
223 87 220 130 125 123
223 91 215 129 125 123
223 92 215 129 124 122
223 93 214 128 123 121
223 93 215 128 124 122
222 94 215 129 124 122
222 95 215 129 124 121
223 94 214 128 123 121
223 94 215 129 124 122
223 95 214 128 123 121
223 95 215 128 123 121
221 90 219 128 123 122
221 91 218 129 125 124
221 91 219 130 127 126
223 89 217 129 125 124
222 88 219 129 125 123
222 89 218 131 126 125
222 89 219 129 124 123
223 88 218 130 126 124
223 88 219 130 125 123
223 89 218 130 126 124
222 90 217 130 126 125
222 91 216 130 125 124
222 91 217 130 126 125
223 90 216 130 125 124
223 90 217 130 126 124
223 91 216 130 125 124
222 90 218 130 126 125
222 90 219 130 126 124
222 91 218 130 126 125
221 88 221 112 109 109
221 89 220 122 120 119
221 89 221 112 108 106
220 88 223 114 102 92
220 89 223 108 92 78
221 88 222 117 110 106
221 88 223 120 110 103
221 89 222 107 97 90
221 89 223 104 91 77
221 90 220 123 119 117
221 90 221 114 108 104
221 91 220 125 121 121
221 91 221 114 107 103
221 90 222 106 95 87
221 90 223 101 85 67
221 91 222 107 96 88
221 91 223 101 84 66
222 88 220 129 124 121
222 88 221 114 114 115
222 89 220 127 122 120
221 92 218 128 124 123
221 92 219 128 125 124
221 93 218 134 133 133
221 93 219 125 122 121
221 94 219 121 116 115
222 92 216 130 125 124
222 92 217 130 125 124
222 93 216 130 125 123
222 93 217 130 125 124
223 92 216 129 125 123
222 92 218 130 125 124
222 93 218 129 124 123
222 94 216 130 125 123
222 94 217 131 128 128
222 95 216 130 125 123
222 95 217 132 130 131
222 94 218 130 128 128
222 94 219 126 123 123
222 95 218 126 123 122
222 95 219 119 113 111
221 92 220 122 118 117
221 92 221 113 105 100
221 93 220 115 109 106
221 93 221 105 96 89
221 92 222 107 95 85
221 92 223 102 85 66
221 93 222 101 87 75
221 93 223 101 81 61
221 94 220 112 104 99
221 94 221 101 90 80
221 95 221 100 87 75
221 94 222 98 82 65
221 94 223 103 81 61
221 95 222 98 81 62
221 95 223 106 83 65
222 95 220 109 99 92
222 95 221 100 86 72
222 95 222 99 81 61
222 95 223 107 84 68
