ply
format ascii 1.0
comment Version 2, Copyright 2017, 8i Labs, Inc.
comment frame_to_world_scale 0.179523
comment frame_to_world_translation -45.2095 7.18301 -54.3561
comment width 1023
element vertex 260
property float x
property float y
property float z
property uchar red
property uchar green
property uchar blue
end_header
224 240 55 70 39 53
225 240 54 73 46 57
225 240 55 72 44 57
225 241 54 72 44 59
225 241 55 71 44 63
225 242 55 68 50 67
225 243 55 65 54 66
226 240 53 76 46 58
227 240 53 75 44 56
227 241 53 73 45 53
226 240 54 74 43 57
226 241 54 72 44 57
227 242 53 73 48 58
227 243 53 73 45 58
226 242 54 67 47 62
226 243 54 65 49 65
227 242 54 69 45 57
226 247 48 92 35 41
227 246 48 89 38 41
227 247 48 89 37 41
227 247 50 83 39 39
227 247 51 82 45 44
225 244 55 65 49 64
225 245 55 68 44 60
224 246 55 75 42 58
225 246 55 73 43 61
225 247 55 75 43 58
227 244 53 65 40 59
227 245 53 65 38 51
226 244 54 63 51 66
226 244 55 64 51 66
226 245 54 69 44 61
226 245 55 69 47 64
227 244 54 66 48 67
227 245 54 67 45 61
226 246 53 76 45 52
226 247 53 73 44 47
227 246 53 71 42 50
227 247 52 78 45 48
227 247 53 75 42 45
226 246 54 72 40 55
226 247 54 74 43 54
229 242 51 81 46 52
229 243 51 73 45 49
231 240 48 81 36 30
231 240 49 85 37 30
230 240 50 81 42 47
230 240 51 78 42 43
230 241 51 81 46 46
231 240 50 84 37 36
231 241 50 84 36 37
231 241 51 87 40 42
230 243 48 92 32 29
230 243 49 91 35 28
231 242 48 87 26 29
231 242 49 86 34 33
231 243 48 87 30 30
231 243 49 86 35 33
230 242 50 75 42 48
230 242 51 79 43 48
230 243 50 74 42 48
230 243 51 73 42 47
231 242 50 84 32 37
231 242 51 76 43 49
231 243 50 84 34 36
228 240 52 74 44 51
228 240 53 74 45 53
228 241 52 76 43 48
228 241 53 74 44 50
229 240 52 77 42 44
229 241 52 79 44 46
228 242 52 78 45 50
228 242 53 77 49 57
228 243 52 76 44 50
229 242 52 80 43 48
229 243 52 78 41 47
230 241 52 80 43 45
228 245 48 94 39 35
229 244 48 94 26 25
229 244 49 80 40 37
229 245 48 95 28 25
229 245 49 92 37 33
228 244 51 75 46 50
228 245 51 73 43 52
229 244 50 74 40 46
229 244 51 75 47 50
229 245 50 78 40 48
229 245 51 75 41 50
228 246 48 85 39 40
228 247 49 83 38 42
229 246 49 96 32 27
228 246 51 75 42 52
228 247 50 76 38 45
228 247 51 79 44 48
229 246 50 76 39 47
229 246 51 73 43 55
230 244 48 91 28 30
230 244 49 87 32 28
230 245 49 93 34 30
230 244 50 76 39 44
230 245 50 81 39 42
230 246 50 77 37 45
228 244 52 74 46 51
228 244 53 71 39 50
228 245 52 71 45 50
228 245 53 66 41 50
229 244 52 74 45 50
228 246 52 76 44 48
224 240 56 69 40 57
224 241 56 71 47 67
224 241 57 72 47 65
224 242 56 68 46 68
224 242 57 73 48 67
224 243 56 68 51 71
224 243 57 73 45 67
224 244 56 71 47 65
224 244 57 76 43 63
224 245 56 79 46 64
224 245 57 81 49 65
225 244 56 69 49 66
224 246 56 80 43 60
224 246 57 85 43 60
224 247 56 86 40 55
224 247 57 89 41 54
225 247 56 83 40 55
224 247 58 89 36 49
226 248 48 88 37 37
226 248 49 88 38 39
226 249 48 89 40 35
226 249 49 89 41 39
227 248 49 86 36 39
227 249 49 89 43 42
226 248 50 82 41 41
226 248 51 81 45 46
226 249 51 81 43 47
227 248 50 82 35 38
227 248 51 81 46 49
227 249 50 85 39 40
227 249 51 82 38 39
226 250 48 90 44 36
226 251 48 94 45 42
226 251 49 91 44 39
227 250 48 89 43 38
227 250 49 90 43 36
227 251 49 91 44 36
226 250 51 82 37 41
226 251 50 84 43 42
226 251 51 85 41 43
227 250 50 89 44 41
227 250 51 83 40 40
227 251 50 87 45 42
227 251 51 87 43 42
225 248 54 72 42 52
225 248 55 76 41 55
225 249 54 75 41 51
225 249 55 81 39 48
225 250 54 76 39 50
225 250 55 82 37 45
225 251 54 77 38 47
225 251 55 85 38 43
226 248 52 77 45 49
226 248 53 74 45 50
226 249 52 80 43 47
226 249 53 73 43 49
227 248 52 78 46 50
226 248 54 72 45 55
226 249 54 74 42 51
226 250 52 79 35 43
226 250 53 75 37 48
226 251 52 77 39 45
226 251 53 77 40 45
226 250 54 78 39 48
226 251 54 81 39 48
225 253 48 95 33 37
224 255 48 80 46 55
225 254 48 91 38 50
225 254 49 89 38 50
225 255 48 78 44 56
225 255 49 76 46 58
226 252 48 95 37 40
226 252 49 90 42 40
226 253 48 97 39 41
226 253 49 91 36 40
226 252 50 85 41 41
226 252 51 81 40 44
226 253 50 84 42 46
226 253 51 77 44 47
226 254 49 88 39 48
226 255 49 74 46 57
226 254 50 81 43 51
226 254 51 75 44 51
226 255 50 71 44 58
226 255 51 72 46 59
227 255 50 67 43 58
227 255 51 66 43 57
225 252 55 89 38 40
225 253 55 95 36 34
225 254 55 100 27 36
226 252 52 77 42 44
226 252 53 77 42 44
226 253 52 76 43 46
226 253 53 74 41 48
226 252 54 79 39 43
226 253 54 84 37 42
226 253 55 92 33 34
226 254 52 72 41 50
226 254 53 76 40 42
226 255 53 82 40 41
227 254 52 72 42 53
227 254 53 69 43 51
227 255 52 70 43 55
227 255 53 77 43 47
226 254 54 89 39 41
226 254 55 98 34 38
226 255 54 83 39 42
226 255 55 99 34 36
227 255 55 90 37 34
224 248 56 88 37 49
224 248 57 93 42 49
224 249 56 87 36 45
224 249 57 97 42 46
225 248 56 85 37 49
225 249 56 87 38 46
224 248 58 100 41 47
224 249 58 103 40 41
224 250 56 97 37 37
224 250 57 99 38 37
224 251 57 99 38 32
225 250 56 90 41 45
225 251 56 92 37 36
224 250 58 102 37 38
224 251 58 107 36 34
224 252 56 92 41 33
224 252 57 106 41 33
224 253 57 110 37 28
225 252 56 95 40 34
225 253 56 101 40 36
225 253 57 107 39 32
224 252 58 113 34 29
224 253 58 115 32 29
224 253 59 119 30 29
224 254 57 113 37 27
225 254 56 107 35 34
225 254 57 111 37 30
225 255 56 109 35 36
225 255 57 112 39 28
224 254 58 115 36 27
224 254 59 120 33 30
224 255 58 115 42 23
224 255 59 120 37 18
225 255 58 113 42 23
226 254 56 102 30 34
226 255 56 107 37 38
224 254 60 122 31 33
224 255 60 122 34 20
232 240 49 83 41 30
232 241 48 86 31 29
232 241 49 82 33 28
232 241 50 82 31 32
232 242 49 86 34 33
