ply
format ascii 1.0
comment Version 2, Copyright 2017, 8i Labs, Inc.
comment frame_to_world_scale 0.179523
comment frame_to_world_translation -45.2095 7.18301 -54.3561
comment width 1023
element vertex 222
property float x
property float y
property float z
property uchar red
property uchar green
property uchar blue
end_header
227 224 49 82 48 47
226 224 51 92 37 34
226 225 50 91 39 35
226 225 51 97 42 39
227 224 50 84 41 38
227 225 50 83 42 38
227 226 49 71 45 47
227 227 49 74 44 46
226 226 50 94 41 36
226 226 51 98 42 39
226 227 50 92 43 38
226 227 51 99 46 43
227 226 50 83 42 42
227 227 50 84 44 43
225 224 52 102 45 39
225 224 53 106 50 40
225 225 52 108 49 41
225 225 53 107 48 38
224 224 54 104 48 41
224 224 55 95 45 45
224 225 54 103 50 45
224 225 55 92 46 47
225 225 54 105 49 42
225 226 52 107 45 39
225 226 53 108 48 38
225 227 52 108 47 42
225 227 53 105 45 40
224 226 54 100 46 42
224 226 55 88 47 48
224 227 54 100 47 41
224 227 55 87 50 50
225 226 54 106 49 41
225 227 54 99 48 43
226 226 52 106 43 39
226 227 52 107 46 42
226 228 51 99 45 44
226 229 51 100 48 48
227 228 50 86 46 48
227 228 51 96 47 47
227 229 50 89 45 49
227 229 51 93 46 49
226 230 51 95 46 48
227 230 50 89 45 50
227 230 51 93 39 40
227 231 51 99 40 39
225 228 52 104 49 47
225 228 53 102 50 45
225 229 52 100 48 46
225 229 53 98 48 43
224 228 54 90 51 47
224 228 55 82 51 52
224 229 54 88 49 45
224 229 55 77 47 48
225 228 54 98 52 48
225 229 54 94 49 46
225 230 53 94 45 39
225 231 53 95 49 41
224 230 55 72 45 46
224 231 55 73 45 44
225 230 54 86 45 42
225 231 54 88 52 46
225 231 55 80 49 46
226 228 52 103 44 41
226 229 52 102 46 43
226 230 52 98 44 41
226 230 53 97 44 35
226 231 52 97 44 42
227 231 52 93 40 40
228 224 48 69 50 53
228 224 49 75 49 49
228 225 48 68 46 50
228 225 49 73 46 49
229 225 48 65 46 54
228 226 48 67 48 53
228 226 49 69 48 51
228 227 48 72 48 53
228 227 49 72 45 48
229 226 48 66 47 57
228 228 48 72 48 55
228 228 49 78 48 53
228 229 48 75 42 53
228 229 49 80 44 52
229 228 48 64 44 55
229 229 48 70 42 55
228 228 50 81 45 50
228 230 48 71 35 50
228 230 49 79 43 52
228 231 49 82 47 52
229 230 48 72 39 53
229 230 49 76 39 50
229 231 48 76 49 58
229 231 49 77 49 55
228 230 50 88 45 50
228 231 50 87 44 49
228 231 51 92 41 43
224 227 56 73 53 62
224 228 56 72 49 59
224 229 56 65 46 55
224 230 56 64 45 54
224 231 56 61 43 48
227 233 51 84 44 43
225 232 53 96 50 43
225 233 53 93 53 47
224 232 55 74 48 47
224 233 55 75 52 50
225 232 54 82 47 41
225 232 55 78 50 45
225 233 54 84 50 42
225 233 55 79 53 48
225 234 53 88 54 48
225 235 53 83 53 47
224 234 55 71 45 41
224 235 54 71 43 37
224 235 55 70 43 35
225 234 54 81 50 41
225 234 55 74 48 37
225 235 54 78 48 40
226 232 52 97 50 50
226 233 52 96 55 50
226 233 53 95 53 46
227 232 52 93 46 46
227 233 52 88 50 46
227 233 53 91 53 50
226 235 53 79 46 44
227 234 52 86 50 46
227 234 53 83 50 48
227 235 52 84 44 46
227 235 53 81 47 45
224 236 54 72 46 38
224 236 55 68 43 41
224 237 55 66 42 45
225 236 54 74 47 42
225 237 54 75 45 47
225 237 55 72 45 46
224 238 55 70 46 52
224 239 55 76 52 60
225 238 54 75 48 51
225 238 55 73 48 52
225 239 54 74 50 55
225 239 55 74 49 55
226 236 53 80 47 49
226 237 53 81 46 54
227 236 52 85 43 50
227 236 53 81 46 50
227 237 52 84 45 53
226 236 54 75 46 46
226 237 54 76 44 51
226 238 53 77 47 55
226 239 53 78 47 57
227 238 52 82 44 53
227 238 53 81 46 55
227 239 53 79 46 59
226 238 54 75 46 53
226 239 54 74 47 54
228 232 49 83 42 50
229 232 48 77 45 58
229 232 49 79 43 54
229 233 48 81 50 60
229 233 49 83 47 57
228 232 50 86 44 49
228 232 51 92 49 48
228 233 50 85 44 51
228 233 51 86 46 46
229 232 50 81 38 49
229 233 50 84 42 52
228 235 48 77 43 50
229 234 48 77 52 52
229 234 49 81 45 55
228 234 50 83 41 52
228 234 51 84 43 47
228 235 51 86 43 50
229 234 50 83 42 52
229 235 50 80 40 50
229 235 51 84 44 50
230 233 48 80 48 57
230 234 48 78 49 52
230 234 49 79 46 53
230 235 48 80 49 52
230 235 49 78 47 50
228 232 52 90 53 48
228 233 52 88 50 44
228 234 52 85 46 42
228 236 51 83 40 50
228 237 51 82 39 52
229 236 50 83 41 52
229 236 51 84 41 53
229 237 50 84 40 50
229 237 51 82 38 52
228 238 51 81 42 51
229 238 51 81 42 51
229 239 51 77 45 49
230 236 48 80 40 47
230 236 49 84 44 50
230 237 48 83 39 50
230 237 49 82 41 49
230 236 50 85 43 51
230 237 50 82 36 47
230 238 48 83 36 45
230 238 49 82 37 45
231 238 48 83 35 45
231 238 49 83 36 43
231 239 48 82 34 41
231 239 49 80 34 36
230 238 50 84 42 46
230 238 51 82 45 46
230 239 50 82 44 44
230 239 51 79 45 45
231 239 50 82 38 42
228 236 52 82 37 47
228 237 52 82 41 51
228 238 52 81 42 51
228 239 52 80 45 55
229 239 52 80 46 50
224 232 56 66 46 48
224 233 56 71 49 50
224 234 56 66 42 45
224 235 56 65 40 44
224 235 57 67 43 50
224 236 56 64 41 49
224 237 56 66 45 52
224 238 56 66 43 53
224 239 56 71 48 59
