ply
format ascii 1.0
comment Version 2, Copyright 2017, 8i Labs, Inc.
comment frame_to_world_scale 0.179523
comment frame_to_world_translation -45.2095 7.18301 -54.3561
comment width 1023
element vertex 336
property float x
property float y
property float z
property uchar red
property uchar green
property uchar blue
end_header
227 272 27 131 127 131
227 273 27 128 126 130
227 274 27 128 125 129
227 275 27 125 123 129
225 273 31 127 127 132
225 275 29 130 130 137
225 274 30 126 128 134
225 274 31 124 126 132
225 275 30 131 132 138
225 275 31 125 127 134
226 272 29 133 132 136
226 273 29 130 131 136
227 272 28 128 127 131
227 272 29 134 133 137
227 273 28 127 125 129
227 273 29 138 139 143
226 272 30 128 128 131
226 272 31 128 128 132
226 273 30 126 127 131
226 273 31 125 126 131
226 274 29 131 131 136
226 275 28 126 123 128
226 275 29 131 131 136
227 274 28 129 124 128
226 274 30 128 129 135
225 277 27 124 124 129
225 278 27 128 128 133
225 279 27 133 136 143
226 276 27 125 123 129
226 277 27 127 126 132
227 276 26 134 133 138
227 276 27 125 123 129
227 277 26 144 146 153
227 277 27 129 129 135
226 278 26 133 141 160
226 278 27 130 130 136
226 279 26 145 148 160
226 279 27 134 143 160
227 278 26 147 151 159
227 279 26 148 152 163
224 277 29 133 133 139
225 276 28 126 124 130
225 276 29 132 133 138
225 277 28 127 127 132
225 277 29 127 128 133
224 276 30 133 134 139
224 276 31 131 132 137
224 277 30 132 134 140
224 277 31 133 134 140
225 276 30 133 134 140
225 276 31 130 131 137
224 278 28 131 134 141
224 278 29 133 135 141
224 279 28 133 135 143
224 279 29 136 138 144
225 278 28 131 132 138
225 279 28 136 139 146
224 278 30 131 132 138
224 278 31 130 132 138
226 276 28 127 125 130
228 272 26 143 144 149
228 272 27 136 136 140
228 273 26 129 130 135
228 273 27 130 127 132
229 272 26 137 137 143
229 272 27 144 145 150
229 273 26 140 141 147
228 274 26 142 142 147
228 274 27 137 137 142
228 275 26 140 141 149
229 274 26 147 149 157
229 275 26 155 157 164
230 273 25 157 156 161
231 272 25 156 155 161
231 273 25 162 160 166
230 272 26 151 149 154
230 273 26 153 153 158
231 272 26 158 156 161
230 274 25 156 157 166
230 275 25 156 160 170
231 274 25 161 162 171
231 275 25 157 162 175
230 274 26 155 155 163
228 276 26 144 145 152
228 277 26 149 152 161
229 276 26 154 156 164
229 277 26 146 153 165
228 279 25 144 152 166
228 278 26 143 151 165
228 279 26 143 154 169
229 278 26 137 151 169
229 279 26 137 153 175
230 276 25 153 159 171
230 277 25 143 156 174
231 276 25 152 161 177
231 277 25 140 157 179
230 278 25 134 153 176
230 279 25 135 155 180
231 278 25 132 151 176
231 279 25 134 149 173
230 279 26 137 156 179
231 279 26 132 151 176
225 280 27 138 140 147
225 281 26 143 147 155
225 281 27 140 143 151
224 282 27 135 139 148
224 283 27 136 143 153
225 282 26 140 147 159
225 282 27 138 145 156
225 283 27 131 143 159
226 280 26 149 152 160
226 280 27 138 146 160
226 281 26 145 149 159
227 280 26 144 151 164
227 281 26 135 148 165
226 282 26 137 147 161
226 283 26 129 146 167
227 282 26 129 146 169
227 283 26 130 150 174
224 280 28 135 138 145
224 281 28 133 136 144
224 284 27 130 140 155
224 285 27 122 140 159
225 284 27 122 140 161
225 285 27 119 139 162
224 286 27 121 139 159
224 287 27 127 145 166
225 286 27 125 144 165
225 287 27 126 146 170
226 284 26 125 146 170
226 285 26 126 148 173
226 285 27 123 145 170
227 284 26 133 154 178
227 285 26 127 151 177
226 286 26 120 145 171
226 286 27 125 146 170
226 287 27 115 144 172
227 286 26 122 149 177
227 287 26 120 149 178
227 287 27 117 147 176
228 280 26 137 152 171
228 281 26 125 146 171
229 280 26 133 154 178
229 281 26 126 151 178
228 282 26 123 149 176
228 283 26 130 153 180
229 282 26 124 151 181
229 283 26 121 151 181
230 280 26 131 156 182
230 281 26 127 154 183
231 280 26 124 150 177
231 281 26 122 153 184
230 282 26 116 149 182
230 283 26 111 148 183
231 282 26 114 150 184
231 282 27 109 146 181
231 283 27 107 146 182
228 284 26 128 154 182
228 285 26 127 154 182
229 284 26 116 149 182
229 285 26 114 148 182
228 286 26 126 153 182
228 287 26 126 154 183
228 287 27 128 155 184
229 286 26 127 154 187
229 286 27 129 157 188
229 287 27 129 159 190
230 284 26 108 146 182
230 284 27 109 146 179
230 285 26 108 144 177
230 285 27 105 144 181
231 284 27 106 147 185
231 285 27 105 148 187
230 286 27 113 151 188
230 287 27 109 152 190
231 286 27 102 148 189
231 287 27 99 149 192
231 287 28 96 148 192
232 272 25 160 161 169
232 273 25 162 162 169
233 272 25 162 163 172
233 273 25 162 165 174
232 274 25 166 169 180
232 275 25 159 167 181
233 274 25 164 170 183
233 275 25 154 163 181
234 272 25 168 171 182
234 273 25 165 170 183
235 272 25 168 172 185
235 273 25 163 170 185
235 272 26 164 170 184
235 273 26 158 167 183
234 274 25 160 166 182
234 274 26 154 162 180
234 275 26 145 153 173
235 274 26 147 161 180
235 275 26 136 151 174
235 275 27 135 153 176
232 276 25 148 161 181
232 277 25 138 154 177
233 276 25 144 150 170
233 277 25 139 142 163
232 277 26 137 140 162
233 277 26 138 141 163
232 278 25 129 155 183
232 278 26 136 140 164
232 279 26 130 141 165
233 278 26 133 142 165
233 279 26 126 144 168
233 279 27 113 138 166
234 276 26 139 148 170
234 277 26 134 142 165
234 277 27 127 139 164
235 276 26 134 147 171
235 276 27 130 145 170
235 277 27 122 136 163
234 278 26 132 144 166
234 278 27 118 135 162
234 279 27 113 135 163
235 276 28 126 145 170
235 277 28 113 139 170
235 277 29 104 139 171
234 278 28 105 127 158
234 279 28 105 130 161
234 279 29 112 147 179
235 278 28 107 139 172
235 278 29 107 142 175
235 279 29 106 144 178
235 278 30 105 140 171
235 279 30 97 139 175
236 272 26 153 164 182
236 272 27 146 161 182
236 273 26 152 164 182
236 273 27 146 161 182
237 272 27 141 160 185
237 273 27 137 161 189
236 274 26 149 163 182
236 274 27 143 159 180
236 275 27 137 155 177
237 272 28 137 160 188
237 272 29 132 157 184
237 273 28 134 158 184
237 273 29 124 151 179
237 273 30 117 142 169
236 274 28 136 155 179
236 275 28 130 152 179
236 275 29 124 148 176
237 274 28 126 154 182
237 274 29 126 151 179
237 275 29 128 151 178
236 275 30 124 143 167
237 274 30 126 145 168
237 275 30 130 143 163
237 275 31 133 136 148
238 272 28 136 158 184
238 272 29 131 155 181
238 272 30 111 138 166
238 272 31 108 134 161
238 273 30 112 137 164
238 273 31 117 137 161
239 272 30 105 133 161
239 272 31 106 131 158
238 274 31 136 147 165
238 275 31 146 151 162
236 276 28 115 147 179
236 276 29 112 141 170
236 277 29 107 138 169
236 276 30 118 134 156
236 276 31 125 126 142
236 277 30 104 127 152
236 277 31 107 120 140
237 276 30 120 128 143
237 276 31 127 119 134
237 277 31 120 120 139
236 278 30 99 132 162
236 278 31 86 118 145
236 279 31 91 131 165
232 280 26 121 147 174
232 281 26 121 152 182
232 281 27 108 143 176
233 280 26 121 146 171
233 280 27 104 135 165
233 281 27 104 140 174
232 282 27 104 142 178
232 283 27 103 143 179
234 280 27 96 130 162
233 281 28 101 139 173
232 283 28 106 145 182
233 282 28 103 142 177
233 282 29 100 140 176
233 283 28 98 141 179
233 283 29 95 141 180
234 280 28 104 138 169
234 280 29 95 132 166
234 281 28 101 138 172
234 281 29 90 130 165
235 280 29 95 134 168
234 281 30 86 126 162
235 280 30 93 135 169
235 280 31 100 137 170
235 281 30 95 133 166
235 281 31 92 128 161
234 282 29 93 133 170
234 283 29 99 142 179
234 282 30 82 125 162
234 283 30 91 136 174
234 283 31 86 130 167
235 282 31 75 118 154
235 283 31 82 125 160
232 284 27 107 149 186
232 285 27 100 146 187
232 286 27 98 145 187
232 284 28 101 145 185
232 285 28 94 143 185
233 284 28 94 142 184
233 284 29 91 140 183
233 285 29 89 140 183
233 284 30 88 135 178
233 285 30 84 137 181
232 286 28 95 144 187
232 286 29 91 141 185
232 287 28 94 145 189
232 287 29 91 144 189
233 286 29 91 141 185
233 287 29 93 143 187
233 286 30 87 138 181
233 287 30 92 142 186
233 287 31 90 138 177
234 284 30 88 135 175
234 284 31 87 131 167
234 285 30 83 132 173
234 285 31 87 127 164
234 286 31 87 130 165
234 287 31 88 130 165
235 286 31 82 122 156
236 280 31 85 132 169
