ply
format ascii 1.0
comment Version 2, Copyright 2017, 8i Labs, Inc.
comment frame_to_world_scale 0.179523
comment frame_to_world_translation -45.2095 7.18301 -54.3561
comment width 1023
element vertex 303
property float x
property float y
property float z
property uchar red
property uchar green
property uchar blue
end_header
231 257 29 95 89 95
230 257 31 91 85 90
231 256 30 87 77 85
231 256 31 91 74 83
231 257 30 89 82 90
231 257 31 88 81 88
231 258 29 95 94 101
231 259 28 109 114 122
231 259 29 101 104 111
230 258 31 86 88 95
230 259 30 84 88 97
230 259 31 78 87 97
231 258 30 85 86 92
231 258 31 86 85 90
231 259 30 94 94 103
231 263 27 128 130 137
229 263 31 83 91 105
230 261 29 115 120 128
231 260 28 104 113 124
231 260 29 109 115 124
231 261 28 110 119 132
231 261 29 113 120 132
230 260 30 94 96 104
230 260 31 78 85 97
230 261 30 96 100 107
230 261 31 78 87 102
231 260 30 92 95 103
230 262 29 115 121 131
230 263 28 111 118 129
230 263 29 119 122 128
231 262 28 112 118 128
231 263 28 112 116 126
230 262 30 99 103 110
230 262 31 80 89 102
230 263 30 123 120 121
230 263 31 99 102 108
227 268 29 132 128 126
227 269 29 118 117 120
226 269 30 117 116 118
226 269 31 125 125 130
227 268 30 124 122 124
227 268 31 129 129 133
227 269 30 120 119 121
227 269 31 128 129 133
226 271 29 130 130 133
227 270 28 124 125 129
227 270 29 128 127 130
227 271 28 127 127 132
227 271 29 128 128 132
226 270 30 124 123 126
226 270 31 123 124 128
226 271 30 128 128 131
226 271 31 131 131 136
227 270 30 125 124 127
227 270 31 129 130 135
229 267 27 126 131 140
230 264 27 119 122 129
230 265 27 127 132 140
231 264 26 144 142 146
231 264 27 132 133 139
231 265 26 134 137 144
231 265 27 145 144 147
230 266 26 126 131 141
230 266 27 125 131 139
230 267 26 129 133 142
230 267 27 131 134 142
231 266 26 133 137 145
231 267 26 141 142 149
229 265 28 111 115 124
229 265 29 131 130 133
229 264 30 127 123 123
229 264 31 110 104 101
229 265 30 124 123 125
229 265 31 118 115 116
228 267 28 113 115 122
228 267 29 117 117 121
229 266 28 115 118 124
229 266 29 115 115 122
229 267 28 122 126 133
228 267 30 125 125 128
228 267 31 124 124 128
229 266 30 125 125 128
229 266 31 122 120 122
230 264 28 110 114 124
230 264 29 125 126 129
230 265 28 121 122 129
230 265 29 136 134 137
230 264 30 131 126 124
228 269 27 126 129 136
229 268 27 125 130 139
229 269 26 146 147 153
229 269 27 127 131 139
228 270 27 131 133 139
228 271 27 130 131 136
229 270 26 148 149 155
229 270 27 128 131 137
229 271 26 147 147 153
229 271 27 130 132 139
230 268 26 139 141 148
230 268 27 128 133 142
230 269 26 137 141 149
230 269 27 129 134 143
231 268 26 144 145 152
231 269 26 147 148 155
231 271 25 160 159 165
230 270 26 141 143 150
230 271 26 150 149 155
231 270 26 149 151 158
231 271 26 155 155 162
228 268 28 127 130 137
228 268 29 123 123 126
228 269 28 128 130 136
228 269 29 114 112 117
229 268 28 128 131 139
228 268 30 125 124 127
228 268 31 127 128 132
228 269 31 106 115 128
228 270 28 125 127 133
233 256 27 116 117 120
233 257 27 120 118 120
232 259 27 116 118 124
233 258 27 121 120 122
233 259 26 133 130 133
233 259 27 122 113 118
235 257 25 143 144 150
234 256 26 132 129 131
234 256 27 121 119 120
234 257 26 138 138 142
234 257 27 126 123 125
235 256 26 143 142 145
235 257 26 142 142 148
235 258 25 147 147 153
235 259 25 148 147 153
234 258 26 139 139 144
234 259 26 139 139 144
235 258 26 144 144 150
235 259 26 145 145 150
232 256 28 105 104 105
232 256 29 92 87 87
232 257 28 111 112 115
232 257 29 96 94 97
233 256 28 107 106 108
233 257 28 114 113 116
232 256 30 89 79 83
232 258 28 111 112 120
232 258 29 105 104 109
232 259 28 107 112 122
232 260 27 111 114 121
232 261 27 120 121 128
233 260 26 132 129 132
233 260 27 126 119 123
233 261 26 142 140 143
233 261 27 118 119 126
232 262 26 140 138 140
232 262 27 124 127 133
232 263 26 142 140 143
232 263 27 136 136 140
233 262 26 145 143 146
233 263 26 148 145 149
234 261 25 154 152 156
235 260 25 151 150 155
235 261 25 159 157 161
234 260 26 145 144 148
234 261 26 148 147 151
234 262 25 157 155 159
234 263 25 160 158 162
235 262 25 162 159 163
235 263 25 161 158 164
234 262 26 152 150 154
234 263 26 156 154 159
232 260 28 109 117 127
232 261 28 110 115 123
236 256 25 146 145 149
236 257 25 148 147 154
237 256 25 150 148 152
237 257 25 155 152 157
236 256 26 145 144 149
236 258 25 151 151 157
236 259 25 152 151 157
237 258 25 157 155 161
237 259 25 157 156 162
238 256 25 158 154 157
238 257 25 162 158 162
239 256 25 164 160 163
239 257 25 168 164 168
238 258 25 162 160 166
238 259 25 166 164 170
239 258 25 167 166 172
239 259 25 170 168 175
236 260 25 156 155 161
236 261 25 162 160 165
237 260 25 162 160 167
237 261 25 164 163 170
236 262 25 162 160 165
236 263 25 160 158 164
237 262 25 165 163 169
237 263 25 163 162 169
238 260 25 170 168 174
238 261 25 168 167 174
239 260 25 163 164 173
239 261 25 157 161 173
239 261 26 156 161 174
238 262 25 160 161 171
238 263 25 161 162 171
239 262 25 156 160 174
239 263 25 156 160 174
239 262 26 155 160 174
239 263 26 156 159 170
233 264 25 156 155 160
233 265 25 151 150 156
232 264 26 147 145 148
232 265 26 139 140 147
233 264 26 149 147 150
233 265 26 150 149 154
232 267 25 153 153 158
233 266 25 155 154 160
233 267 25 159 157 162
232 266 26 142 144 151
232 267 26 152 151 156
233 266 26 149 149 155
234 264 25 155 155 161
234 265 25 154 153 159
235 264 25 163 161 168
235 265 25 163 162 169
234 266 25 164 162 167
234 267 25 170 167 172
235 266 25 171 168 173
235 267 25 176 173 179
232 268 25 152 154 162
232 269 25 155 156 164
233 268 25 162 162 168
233 269 25 162 162 170
232 268 26 154 154 161
232 269 26 148 151 159
232 270 25 162 159 164
232 271 25 164 163 168
233 270 25 165 164 169
233 271 25 166 165 172
234 268 25 172 170 177
234 269 25 171 170 178
235 268 25 170 172 181
235 269 25 171 172 182
234 270 25 168 169 178
234 271 25 167 170 180
235 270 25 169 172 182
235 271 25 168 171 183
236 264 25 163 163 170
236 265 25 164 165 173
237 264 25 164 164 172
237 265 25 164 166 175
236 266 25 167 168 178
236 267 25 167 169 179
237 266 25 169 169 178
237 267 25 169 170 179
237 267 26 167 169 179
238 264 25 161 163 173
238 265 25 168 168 176
238 264 26 165 166 174
238 265 26 167 167 176
239 264 26 158 161 171
239 265 26 166 167 177
239 265 27 158 162 173
238 266 26 166 169 179
238 267 26 162 166 178
238 267 27 159 164 177
239 266 27 153 160 174
239 267 27 142 155 173
239 266 28 136 153 174
239 267 28 138 154 174
236 268 25 167 169 179
236 269 25 170 172 182
236 269 26 171 173 183
237 268 26 162 166 178
237 269 26 161 167 180
236 270 25 170 172 182
236 270 26 168 172 183
236 271 26 164 170 183
237 270 26 161 168 183
237 270 27 153 164 182
237 271 26 156 166 184
237 271 27 146 161 183
238 268 26 154 161 175
238 268 27 151 160 177
238 269 27 147 160 179
239 268 27 146 160 179
238 270 27 143 159 181
238 269 28 140 159 182
239 268 28 141 157 179
239 268 29 131 151 175
239 269 28 135 155 179
239 269 29 129 150 175
239 269 30 126 148 173
239 269 31 123 143 168
238 270 28 139 159 184
238 270 29 138 158 184
238 271 28 138 159 185
238 271 29 134 155 181
239 270 29 132 152 177
238 271 30 125 148 174
239 270 30 126 146 171
239 270 31 119 140 165
239 271 30 119 143 169
239 271 31 108 134 161
