ply
format ascii 1.0
comment Version 2, Copyright 2017, 8i Labs, Inc.
comment frame_to_world_scale 0.179523
comment frame_to_world_translation -45.2095 7.18301 -54.3561
comment width 1023
element vertex 197
property float x
property float y
property float z
property uchar red
property uchar green
property uchar blue
end_header
239 342 160 143 124 106
239 342 161 145 125 105
239 343 160 135 116 97
239 343 161 143 124 105
239 342 162 151 131 113
239 342 163 151 132 114
239 343 162 146 127 107
239 343 163 144 124 105
239 341 164 152 132 112
239 341 165 150 130 109
239 341 166 147 127 108
239 342 164 152 132 112
239 342 165 152 132 111
239 343 164 150 131 111
239 343 165 152 133 113
239 342 166 144 125 105
239 342 167 131 111 88
239 343 166 135 116 93
239 343 167 117 90 61
239 339 174 118 30 55
239 339 175 119 34 59
239 341 170 112 31 54
239 341 171 114 20 55
239 342 168 115 80 58
239 342 169 111 36 46
239 343 168 105 51 37
239 343 169 110 12 42
239 342 170 115 18 55
239 342 171 117 19 60
239 343 170 118 8 55
239 343 171 120 16 61
239 340 173 117 19 55
239 341 172 115 14 52
239 341 173 116 16 52
239 340 174 119 28 57
239 340 175 121 35 61
239 341 174 119 27 55
239 341 175 122 33 60
238 343 173 119 21 57
239 342 172 116 19 58
239 342 173 114 15 49
239 343 172 120 20 62
239 343 173 118 20 57
238 343 174 117 11 52
238 343 175 116 6 51
239 342 174 114 16 46
239 342 175 119 25 53
239 343 174 114 10 47
239 343 175 115 7 48
239 344 160 138 120 102
239 344 161 143 124 107
239 345 160 144 126 109
239 345 161 144 125 108
238 345 163 146 127 108
239 344 162 141 122 102
239 344 163 141 121 101
239 345 162 141 122 102
239 345 163 144 124 105
238 346 160 145 127 110
238 346 161 140 121 103
238 347 160 148 130 113
238 347 161 144 125 107
239 346 160 145 127 110
239 346 161 144 125 108
238 346 162 136 116 95
238 346 163 145 126 107
238 347 162 133 113 92
238 347 163 137 116 94
237 347 167 150 131 114
238 345 164 152 133 114
238 345 165 152 133 115
239 344 164 149 130 110
239 344 165 150 131 112
238 345 166 146 127 107
238 345 167 141 122 101
239 344 166 131 111 87
239 344 167 115 90 61
238 346 164 152 133 115
238 346 165 154 135 118
238 347 164 148 128 108
238 347 165 151 132 113
238 346 166 151 133 115
238 346 167 151 132 115
238 347 166 149 130 112
238 347 167 151 133 115
237 348 160 150 131 114
237 348 161 152 134 117
237 349 160 148 129 112
237 349 161 153 134 117
237 348 162 149 129 111
237 348 163 146 126 107
237 349 162 153 134 116
237 349 163 152 133 115
237 350 160 136 116 97
237 350 161 147 127 109
237 351 160 141 121 102
237 351 161 144 124 104
237 350 162 153 134 116
237 350 163 152 133 115
237 351 162 150 130 111
237 351 163 147 127 108
238 348 160 151 132 115
238 348 161 150 132 115
238 348 162 143 123 103
238 348 163 141 120 100
237 348 164 147 127 106
237 348 165 148 128 108
237 349 164 151 131 112
237 349 165 150 131 112
237 348 166 144 125 106
237 348 167 148 130 112
237 349 166 151 133 116
237 349 167 150 132 116
237 350 164 152 133 114
237 350 165 151 133 115
237 351 164 149 131 113
237 351 165 152 134 119
237 350 166 152 134 118
237 350 167 151 134 119
237 351 166 151 134 118
237 351 167 150 133 118
237 347 169 154 136 120
237 347 170 152 135 119
237 347 171 150 133 117
238 345 168 133 112 91
238 345 169 125 100 79
239 344 168 107 73 43
239 344 169 105 41 33
238 344 171 119 20 56
238 345 170 110 61 46
238 345 171 110 36 38
239 344 170 114 21 51
239 344 171 119 17 58
238 346 168 150 133 116
238 346 169 145 128 110
238 347 168 153 135 117
238 347 169 153 135 119
238 346 170 124 103 78
238 346 171 107 75 34
238 347 170 147 130 113
238 347 171 138 119 99
237 347 172 143 126 107
237 347 173 141 123 103
237 346 175 117 88 58
237 347 174 141 123 101
237 347 175 141 124 103
238 344 172 119 13 55
238 344 173 119 14 55
238 345 172 112 32 37
238 345 173 112 26 33
239 344 172 121 12 61
238 344 174 118 13 52
238 344 175 117 11 50
238 345 174 110 27 30
238 345 175 111 19 32
238 346 172 106 69 29
238 346 173 113 78 41
238 347 172 132 113 89
238 347 173 131 112 85
238 346 174 116 80 51
238 346 175 111 64 39
237 348 168 151 133 116
237 348 169 152 134 117
237 349 168 148 130 114
237 349 169 144 126 108
237 348 170 151 133 116
237 348 171 147 130 113
237 349 170 145 127 109
237 349 171 143 125 107
236 351 169 146 130 115
237 350 168 149 132 117
237 350 169 145 127 111
237 351 168 149 132 117
237 351 169 146 130 116
236 351 170 143 126 111
236 351 171 142 125 109
237 350 170 143 126 109
237 350 171 142 125 108
237 351 170 145 128 113
237 351 171 143 126 110
237 348 172 144 126 108
237 348 173 146 128 110
237 349 172 139 121 101
237 349 173 144 125 107
237 348 174 149 132 114
237 348 175 151 134 117
237 349 174 151 133 115
237 349 175 151 134 116
236 350 173 149 131 114
236 351 172 147 130 114
236 351 173 150 133 117
237 350 172 145 127 110
237 350 173 147 128 111
236 350 174 150 131 113
236 350 175 149 130 112
236 351 174 148 130 113
236 351 175 145 126 108
