ply
format ascii 1.0
comment Version 2, Copyright 2017, 8i Labs, Inc.
comment frame_to_world_scale 0.179523
comment frame_to_world_translation -45.2095 7.18301 -54.3561
comment width 1023
element vertex 284
property float x
property float y
property float z
property uchar red
property uchar green
property uchar blue
end_header
227 374 160 117 46 9
227 374 161 116 47 9
227 375 160 113 55 12
227 375 161 113 56 12
227 374 162 117 50 9
227 374 163 116 55 7
227 375 162 112 60 19
227 375 163 111 64 20
227 374 164 110 59 6
227 374 165 102 65 14
227 375 164 107 67 24
227 375 165 99 73 44
227 374 166 96 69 34
227 374 167 99 80 59
227 375 166 95 78 62
227 375 167 91 82 75
229 371 160 136 116 94
229 371 161 136 119 101
229 371 162 135 118 100
229 371 163 135 119 104
230 369 160 139 123 108
230 369 161 138 123 108
231 368 160 141 124 108
231 368 161 140 123 107
230 368 163 139 123 107
230 369 162 137 121 107
230 369 163 137 121 106
231 368 162 139 122 107
231 368 163 137 121 105
230 370 160 139 124 109
230 370 161 139 124 110
230 371 160 140 123 106
230 371 161 139 123 107
230 370 162 137 123 109
230 370 163 136 122 108
229 371 164 135 119 104
229 371 165 137 121 107
229 371 166 137 122 107
229 371 167 136 120 106
230 368 164 139 123 108
230 368 165 139 123 108
230 369 164 137 121 106
230 369 165 136 120 105
231 368 164 137 121 105
231 368 165 137 121 106
230 368 166 140 124 110
230 368 167 140 124 110
230 369 166 138 122 108
230 369 167 138 123 109
231 368 166 137 121 106
231 368 167 138 122 107
230 370 164 137 122 108
230 370 165 137 122 108
230 370 166 137 122 108
230 370 167 136 121 107
228 372 160 112 66 12
228 372 161 111 67 18
228 373 160 115 54 7
228 373 161 114 54 8
229 372 160 120 87 45
229 372 161 122 95 61
228 372 162 111 70 22
228 373 162 114 56 9
228 373 163 113 66 19
229 372 162 120 96 63
229 372 163 121 97 68
228 374 160 118 50 8
228 374 161 117 50 8
228 374 162 117 52 8
228 374 163 115 55 6
228 373 164 117 79 37
228 373 165 126 100 69
229 372 164 126 103 78
229 372 165 135 115 94
228 373 166 126 103 76
228 373 167 127 108 86
229 372 166 137 119 101
229 372 167 135 119 102
228 374 164 114 66 15
228 374 165 112 76 32
228 374 166 106 78 43
228 374 167 115 96 77
227 374 168 97 86 76
227 374 169 101 98 97
227 375 168 90 87 86
227 375 169 93 92 95
226 375 170 95 97 101
226 375 171 97 98 100
227 374 170 102 102 105
227 374 171 97 101 107
227 375 170 95 96 100
227 375 171 95 97 102
227 373 173 100 102 107
227 373 174 103 104 107
227 373 175 111 108 109
226 375 172 98 98 99
226 375 173 100 96 95
227 374 172 96 101 108
227 374 173 100 102 108
227 375 172 96 98 102
227 375 173 101 100 103
226 375 174 111 103 97
226 375 175 119 108 99
227 374 174 108 107 108
227 374 175 115 110 109
227 375 174 112 107 104
227 375 175 118 111 107
229 371 168 133 118 103
229 371 169 131 116 101
229 370 170 133 118 105
229 370 171 133 120 107
229 371 170 131 116 103
229 371 171 131 118 107
230 368 168 139 123 108
230 369 168 138 122 107
230 369 169 136 120 106
231 368 168 138 123 108
231 368 169 137 122 109
230 368 171 132 118 104
230 369 170 133 119 106
230 369 171 131 118 105
231 368 170 136 121 108
231 368 171 135 121 108
230 370 168 136 120 105
230 370 169 134 118 103
230 370 170 133 118 104
230 370 171 134 120 108
229 370 172 132 120 110
229 370 173 130 120 112
229 371 172 129 118 109
229 371 173 125 117 111
229 370 174 126 117 112
229 370 175 116 112 110
229 371 174 116 111 110
229 371 175 103 104 108
230 368 172 132 117 103
230 368 173 134 120 106
230 369 172 130 116 104
230 369 173 132 119 107
231 368 172 136 121 107
230 368 174 135 121 108
230 368 175 134 121 110
230 369 174 132 120 109
230 369 175 128 118 111
230 370 172 133 120 109
230 370 173 131 120 110
228 372 168 134 118 102
228 372 169 131 117 106
228 373 168 123 108 94
228 373 169 122 112 104
229 372 168 133 118 104
229 372 169 131 118 105
228 372 170 128 117 108
228 372 171 120 113 108
228 373 170 117 111 108
228 373 171 108 107 109
229 372 170 128 117 107
229 372 171 125 115 107
228 372 172 111 108 107
228 372 173 108 107 108
228 373 172 101 103 108
228 373 173 100 102 107
229 372 172 124 115 109
229 372 173 119 113 110
228 372 174 105 105 108
228 372 175 101 102 106
228 373 174 102 103 105
228 373 175 108 106 108
229 372 174 113 110 109
229 372 175 99 101 106
225 377 163 87 102 116
225 378 160 89 105 121
225 378 161 88 103 118
225 379 160 94 106 119
225 379 161 96 105 115
225 378 162 89 102 116
225 378 163 89 103 116
225 379 162 97 104 112
225 379 163 98 102 108
226 376 160 96 86 77
226 376 161 97 87 79
226 377 160 90 99 107
226 377 161 90 99 108
227 376 160 100 77 53
227 376 161 103 73 47
226 376 162 101 82 70
226 376 163 100 82 73
226 377 162 89 99 108
226 377 163 90 97 105
227 376 162 105 74 53
226 378 160 88 104 120
226 378 161 87 103 119
225 377 164 87 100 114
225 377 165 87 99 111
225 377 166 92 100 110
225 377 167 96 101 108
224 379 164 101 98 97
224 379 165 101 97 93
225 378 164 92 103 114
225 378 165 92 100 110
225 379 164 99 101 105
225 379 165 100 101 103
224 379 166 100 91 85
224 379 167 103 85 78
225 378 166 96 100 106
225 378 167 99 97 99
225 379 166 99 96 94
225 379 167 103 93 87
226 376 164 97 86 79
226 376 165 94 88 84
226 377 164 89 97 105
226 377 165 89 97 105
226 376 166 91 91 93
226 376 167 91 93 99
226 377 166 91 98 107
226 377 167 94 98 105
227 376 166 93 89 89
227 376 167 93 92 94
224 380 160 105 106 109
224 380 161 104 101 100
224 381 160 103 87 71
224 381 161 100 78 57
225 380 160 101 107 115
225 380 161 103 105 110
224 380 162 104 99 96
224 380 163 104 98 93
224 381 162 103 73 50
224 381 163 103 70 45
225 380 162 105 104 105
224 380 164 104 94 84
224 380 165 104 88 76
224 381 164 105 75 50
224 381 165 105 72 44
224 380 166 102 78 63
224 380 167 100 68 50
224 381 166 106 69 48
224 381 167 104 66 45
225 377 168 99 96 97
225 377 169 100 92 87
225 377 170 101 88 81
225 377 171 103 78 64
224 379 168 103 76 61
224 379 169 101 72 55
225 378 168 101 93 89
225 378 169 100 83 72
225 379 168 105 87 77
225 379 169 102 77 62
224 379 170 102 68 49
224 379 171 103 64 43
225 378 170 101 76 61
225 378 171 101 66 50
226 376 168 92 95 100
226 376 169 94 96 101
226 377 168 96 98 101
226 377 169 96 95 97
226 376 170 97 97 99
226 376 171 101 96 94
226 377 170 99 93 93
226 377 171 102 88 80
225 377 172 101 70 53
225 377 173 101 68 50
225 377 174 101 69 47
225 377 175 103 74 51
224 379 172 103 63 45
224 379 173 102 63 44
225 378 172 103 63 47
225 378 173 103 64 45
224 379 174 101 63 38
224 379 175 99 62 42
225 378 174 102 64 44
225 378 175 101 68 44
226 376 172 103 94 89
226 376 173 101 85 73
226 377 172 102 82 73
226 376 174 102 83 66
226 376 175 111 92 70
224 380 168 103 66 50
224 380 169 103 64 48
224 381 168 103 62 44
224 380 170 103 64 43
224 380 171 103 65 39
224 380 172 102 65 37
224 380 173 101 64 37
224 380 174 100 65 34
