ply
format ascii 1.0
comment Version 2, Copyright 2017, 8i Labs, Inc.
comment frame_to_world_scale 0.179523
comment frame_to_world_translation -45.2095 7.18301 -54.3561
comment width 1023
element vertex 180
property float x
property float y
property float z
property uchar red
property uchar green
property uchar blue
end_header
225 416 83 71 96 126
225 417 83 87 103 120
225 418 83 84 95 107
225 419 83 82 92 104
226 416 83 67 95 125
226 417 83 95 108 123
227 416 83 70 95 124
227 417 83 106 116 129
226 418 83 95 104 115
226 419 83 82 93 106
227 418 83 102 108 117
227 419 83 85 95 107
224 416 84 69 94 127
224 416 85 60 86 120
224 417 84 78 94 113
224 417 85 73 91 110
225 416 84 68 92 125
225 417 84 81 97 115
224 418 84 77 90 106
224 418 85 77 91 106
224 419 84 94 102 113
225 418 84 81 93 107
225 419 84 86 95 107
224 421 83 101 105 112
225 420 83 95 101 111
225 421 83 99 104 112
224 422 83 96 103 113
224 423 83 77 93 108
225 422 83 99 106 115
225 423 83 94 104 116
226 420 83 78 90 103
226 421 83 82 92 105
227 420 82 69 85 101
227 420 83 71 86 102
227 421 82 62 80 96
227 421 83 62 80 96
226 422 82 82 92 105
226 422 83 92 100 112
226 423 82 84 96 109
226 423 83 92 101 114
227 422 82 70 84 98
227 423 82 83 94 107
224 420 84 98 103 111
224 421 84 99 104 111
225 420 84 99 104 112
224 422 84 86 97 110
228 416 82 86 103 125
228 416 83 80 101 127
228 417 82 112 119 131
228 417 83 111 119 132
229 416 82 93 108 128
229 417 82 116 122 133
228 418 82 103 107 115
228 419 82 91 97 106
229 418 82 114 116 123
229 419 82 101 104 110
231 416 81 132 134 143
231 417 81 138 139 145
230 416 82 108 117 132
230 417 82 128 132 141
231 416 82 131 133 142
231 417 82 136 139 147
231 418 81 128 127 131
231 419 81 110 111 115
230 418 82 127 127 133
230 419 82 106 107 113
231 418 82 128 128 132
228 420 82 85 94 106
228 421 82 79 91 106
229 420 82 97 101 108
229 421 82 100 106 114
229 423 81 96 107 121
228 422 82 81 93 106
228 423 82 90 100 113
229 422 82 102 109 120
229 423 82 94 105 117
230 421 81 105 109 118
231 420 81 102 105 110
231 421 81 104 108 116
230 420 82 101 104 110
230 421 82 103 107 114
230 422 81 105 112 122
230 423 81 100 110 123
231 422 81 106 112 122
231 423 80 97 108 122
231 423 81 102 111 122
224 424 83 69 89 107
224 425 82 58 84 107
224 425 83 69 90 110
225 424 82 91 101 113
225 424 83 91 101 114
225 425 82 76 92 109
225 427 81 84 104 125
224 426 82 20 69 102
224 426 83 32 72 104
224 427 82 58 88 110
225 426 82 34 72 103
225 427 82 64 92 115
226 425 81 83 95 111
227 424 81 97 107 120
227 425 81 85 100 114
226 424 82 86 97 109
226 425 82 87 97 109
227 424 82 91 101 114
226 426 81 57 84 109
226 427 81 87 105 125
227 426 81 72 94 114
227 427 80 103 115 131
227 427 81 90 106 123
224 428 81 103 115 130
224 429 81 107 118 132
225 428 81 103 117 134
225 429 80 105 118 134
225 429 81 108 120 135
224 428 82 98 111 127
224 430 80 103 117 133
224 430 81 105 117 133
224 431 80 89 112 134
225 430 80 104 117 132
226 428 80 107 120 136
226 428 81 101 117 135
226 429 80 104 120 137
227 428 80 109 120 135
227 429 80 111 123 138
228 424 81 98 108 122
228 425 80 80 98 116
228 425 81 82 99 116
229 424 81 91 104 119
229 425 80 79 97 116
228 426 80 82 100 118
228 427 80 96 110 126
229 426 80 78 98 117
229 427 80 78 98 117
230 424 80 80 97 115
230 424 81 85 100 116
230 425 80 77 96 114
231 424 80 77 95 113
230 426 80 76 97 117
228 428 80 105 118 133
232 416 81 135 136 142
232 417 81 137 137 143
233 416 81 133 134 140
233 417 81 132 132 138
232 418 81 125 124 129
232 419 81 112 113 118
233 418 81 124 124 129
233 419 81 118 119 123
234 416 80 128 129 135
234 416 81 131 131 138
234 417 80 130 130 136
234 417 81 129 129 135
235 416 80 126 127 132
235 417 80 134 133 138
234 418 80 130 130 136
234 418 81 126 127 131
234 419 80 124 124 129
234 419 81 123 122 127
235 418 80 132 131 135
235 419 80 128 127 132
232 420 81 105 108 115
232 421 81 103 108 117
233 420 80 109 113 121
233 420 81 111 114 121
233 421 80 103 110 120
233 421 81 104 110 119
232 422 80 101 110 122
232 422 81 102 110 122
232 423 80 95 107 122
233 422 80 99 109 121
233 423 80 94 106 121
234 420 80 116 118 124
234 421 80 108 113 123
235 420 80 123 123 128
235 421 80 117 120 128
234 422 80 101 110 122
236 416 80 124 124 130
236 417 80 135 134 138
236 418 80 133 131 135
236 419 80 130 128 131
232 424 80 76 95 113
