ply
format ascii 1.0
comment Version 2, Copyright 2017, 8i Labs, Inc.
comment frame_to_world_scale 0.179523
comment frame_to_world_translation -45.2095 7.18301 -54.3561
comment width 1023
element vertex 83
property float x
property float y
property float z
property uchar red
property uchar green
property uchar blue
end_header
233 367 64 103 128 171
235 364 64 163 170 193
235 365 64 155 164 195
235 365 65 128 140 187
234 366 64 130 147 182
234 366 65 129 142 185
234 367 64 99 126 170
234 367 65 127 139 184
235 366 64 131 148 189
235 366 65 122 135 184
234 367 66 106 113 194
234 367 67 99 110 194
235 366 66 111 119 196
235 366 67 108 116 194
235 367 66 109 106 196
235 367 67 104 114 193
235 367 68 115 127 188
235 367 69 125 137 186
236 363 64 133 140 172
237 362 64 48 84 161
237 363 64 73 87 150
237 363 65 118 130 181
237 363 66 123 136 182
238 361 64 136 156 186
239 360 64 191 187 193
239 360 65 198 196 201
239 361 64 178 184 197
239 361 65 174 184 204
239 361 66 173 181 201
238 362 64 66 107 166
238 362 65 88 120 179
238 363 65 95 112 176
239 362 65 115 144 189
238 362 66 101 122 182
238 363 66 109 125 183
238 363 67 104 121 189
239 362 66 145 159 193
239 362 67 121 147 200
239 363 67 103 122 192
239 363 68 114 120 191
239 363 69 116 116 190
236 364 64 169 178 204
236 364 65 152 164 202
236 365 65 138 149 194
237 364 65 137 152 188
236 364 66 136 147 195
236 365 66 101 118 194
236 365 67 105 113 198
237 364 66 119 138 190
237 364 67 113 125 191
237 365 67 116 120 198
236 366 67 106 119 196
238 364 67 120 129 190
237 365 68 115 124 197
236 366 68 105 123 190
236 366 69 116 132 188
236 367 68 112 128 188
236 367 69 122 135 186
237 366 68 113 127 198
237 366 69 116 132 192
236 367 70 117 137 187
237 366 70 118 134 189
237 367 70 120 136 186
237 367 71 111 142 192
238 364 68 126 133 190
238 364 69 116 132 190
238 365 68 122 130 193
238 365 69 119 132 193
239 364 68 119 128 191
239 364 69 106 122 188
238 365 70 116 132 191
239 364 70 98 116 185
239 365 70 112 129 188
239 365 71 113 134 188
238 366 69 119 133 194
238 366 70 119 135 192
238 367 71 118 140 190
239 366 70 117 136 191
239 366 71 114 136 189
239 367 71 114 139 192
238 367 72 104 134 189
239 366 72 114 137 189
239 367 72 97 126 184
