ply
format ascii 1.0
comment Version 2, Copyright 2017, 8i Labs, Inc.
comment frame_to_world_scale 0.179523
comment frame_to_world_translation -45.2095 7.18301 -54.3561
comment width 1023
element vertex 256
property float x
property float y
property float z
property uchar red
property uchar green
property uchar blue
end_header
224 623 80 109 133 189
225 622 80 162 172 199
225 623 80 124 141 184
227 621 80 167 177 194
226 622 80 155 164 191
226 623 80 127 140 181
226 623 81 78 76 183
227 622 80 159 171 192
227 623 80 143 156 189
227 623 81 140 157 188
229 619 80 145 162 189
231 617 80 127 151 179
230 618 80 144 163 189
230 619 80 143 161 186
231 618 80 137 158 184
231 619 80 149 166 189
231 619 81 156 169 191
228 620 80 150 163 187
228 621 80 152 166 186
229 620 80 144 161 185
229 621 80 147 163 184
229 621 81 146 162 184
228 622 80 151 167 188
228 622 81 152 170 195
228 623 81 151 171 197
229 622 81 144 165 190
229 623 81 150 172 198
228 623 82 145 166 193
229 622 82 148 170 196
229 623 82 149 168 193
230 620 80 140 158 183
230 620 81 142 159 183
230 621 81 137 156 180
231 620 81 148 162 184
231 621 81 137 153 177
230 621 82 132 152 178
231 620 82 146 159 180
231 621 82 130 149 173
230 622 82 144 164 190
230 623 82 153 169 191
230 623 83 154 167 189
231 622 82 136 155 181
231 622 83 145 162 185
231 623 83 152 165 185
233 615 80 158 176 203
235 613 80 126 149 176
234 614 80 138 160 188
234 615 80 153 171 196
235 614 80 127 152 180
235 614 81 144 161 185
235 615 80 147 165 190
235 615 81 151 165 187
235 615 82 153 163 183
237 611 80 143 161 185
238 609 80 131 155 182
239 608 80 108 138 168
239 608 81 108 139 169
239 609 80 118 145 174
239 609 81 124 150 179
239 608 82 128 151 179
239 609 82 129 150 176
239 609 83 139 154 177
238 610 80 146 164 187
238 610 81 130 154 182
238 611 80 144 162 186
238 611 81 125 152 181
239 610 81 125 151 178
238 610 82 115 145 175
238 611 82 119 145 173
238 611 83 156 161 175
239 610 82 125 147 173
239 610 83 151 160 177
239 611 83 149 156 171
239 610 84 171 171 181
239 611 84 168 168 178
239 611 85 176 174 181
239 611 86 156 166 193
236 612 80 133 154 180
236 613 80 125 149 178
236 613 81 130 155 185
237 612 80 137 158 184
237 612 81 130 156 186
237 613 81 134 158 187
237 612 82 129 153 182
237 613 82 133 153 180
237 613 83 132 149 174
236 614 80 122 149 179
236 614 81 134 156 184
236 614 82 141 158 183
236 615 82 152 164 184
236 615 83 163 170 185
237 614 82 138 155 180
237 614 83 147 158 179
237 615 83 162 169 184
238 612 81 122 150 181
238 612 82 121 145 173
238 612 83 131 144 165
238 613 83 129 144 167
237 614 84 159 166 182
237 615 84 173 176 189
237 615 85 180 179 188
238 612 84 142 151 168
238 613 84 138 149 169
238 613 85 159 163 178
239 612 84 153 158 172
239 612 85 165 168 181
239 613 85 166 169 183
239 612 86 159 167 193
239 612 87 170 175 194
239 613 86 162 170 191
239 613 87 172 176 196
238 614 84 157 164 181
238 614 85 172 174 186
238 615 85 181 179 189
238 614 86 160 169 190
238 615 86 155 164 189
238 615 87 161 168 192
239 614 86 165 171 191
239 614 87 174 176 194
239 615 86 159 167 190
239 615 87 168 173 193
239 614 88 186 187 204
239 615 88 181 182 201
239 615 89 178 179 194
232 616 80 147 167 193
232 617 80 131 153 181
232 617 81 126 147 175
233 616 80 151 169 194
233 617 80 136 156 181
233 617 81 135 153 178
232 618 80 134 155 182
232 618 81 143 161 187
232 619 81 162 173 192
233 618 81 147 162 186
232 619 82 169 177 194
233 618 82 162 173 196
233 619 82 180 183 198
233 619 83 187 185 194
234 616 80 152 168 191
234 616 81 149 162 185
234 617 81 144 156 179
235 616 81 148 160 181
234 617 82 150 161 181
235 616 82 151 161 181
235 616 83 157 166 186
235 617 82 150 161 180
235 617 83 163 169 184
234 618 82 160 169 188
234 618 83 177 179 191
234 619 83 187 186 196
235 618 83 171 174 188
234 619 84 190 187 197
235 618 84 179 180 191
235 619 84 190 187 196
235 619 85 186 184 195
232 620 82 159 168 185
232 621 82 143 156 176
232 621 83 132 148 170
233 620 83 174 176 188
233 621 83 151 157 176
232 622 83 143 157 178
232 623 83 153 165 189
234 620 83 187 184 192
233 621 84 158 165 187
232 622 84 155 166 190
232 623 84 160 169 191
233 622 84 156 164 186
233 623 84 159 166 187
233 623 85 170 173 188
234 620 84 192 186 192
234 620 85 195 188 194
234 621 84 166 169 189
234 621 85 175 175 192
235 620 85 189 185 194
235 621 85 183 181 195
235 620 86 182 181 194
235 621 86 182 180 194
234 622 85 173 174 191
234 623 85 175 175 190
234 622 86 177 177 192
234 623 86 180 178 192
235 622 86 181 179 193
235 622 87 196 189 199
235 623 86 181 179 193
235 623 87 197 191 202
236 616 83 167 173 189
236 617 83 170 173 187
236 616 84 166 169 182
236 617 84 168 169 183
236 617 85 161 161 174
237 616 84 169 170 182
237 616 85 168 167 177
237 617 85 159 158 169
237 616 86 156 165 188
237 617 86 160 167 188
236 618 84 174 175 186
236 618 85 173 172 185
236 619 85 171 175 191
236 618 86 172 175 193
236 619 86 176 178 193
236 619 87 178 178 194
237 618 86 168 173 191
237 618 87 169 172 190
237 619 87 173 175 192
238 616 86 157 164 183
238 616 87 166 169 189
238 617 87 167 170 189
238 618 87 170 171 186
236 620 86 180 180 194
236 620 87 180 178 192
236 621 87 184 181 193
236 622 87 192 187 196
236 623 87 192 188 199
237 618 88 191 185 202
237 619 88 194 188 199
238 616 88 172 173 193
238 617 88 170 170 186
238 617 89 165 164 188
239 616 88 174 175 195
239 616 89 167 167 185
239 617 89 161 162 183
239 616 90 173 173 194
239 617 90 170 169 196
238 618 88 185 181 194
238 618 89 180 178 194
238 619 89 190 186 197
238 619 90 185 182 198
239 618 90 177 176 196
239 618 91 179 177 201
239 619 90 181 180 199
239 619 91 177 178 196
236 621 88 194 190 200
237 620 88 195 190 201
237 620 89 194 188 200
237 621 88 194 189 200
237 621 89 191 187 198
236 622 88 193 188 198
236 623 88 184 182 196
237 622 88 192 188 198
237 622 89 187 184 195
237 623 89 169 171 187
238 620 89 191 185 199
238 621 89 190 185 197
238 620 90 180 177 197
238 621 90 176 174 190
239 620 90 164 166 191
239 620 91 157 161 185
239 621 91 162 163 186
238 622 90 184 182 192
238 623 90 174 177 190
239 622 90 189 186 193
239 622 91 187 183 192
239 623 90 186 185 192
239 623 91 187 186 193
239 622 92 183 180 193
239 623 92 184 184 192
