ply
format ascii 1.0
comment Version 2, Copyright 2017, 8i Labs, Inc.
comment frame_to_world_scale 0.179523
comment frame_to_world_translation -45.2095 7.18301 -54.3561
comment width 1023
element vertex 396
property float x
property float y
property float z
property uchar red
property uchar green
property uchar blue
end_header
228 487 247 175 186 205
229 487 247 177 187 206
230 487 247 186 195 212
231 486 247 150 163 183
231 487 247 152 166 188
226 483 251 131 148 192
227 483 251 143 161 195
224 480 254 153 165 195
224 480 255 132 143 185
224 481 254 174 184 205
225 480 254 158 173 199
225 480 255 148 160 194
225 481 254 151 165 190
224 482 253 184 193 213
224 483 252 150 165 200
224 483 253 181 191 215
225 482 253 145 159 191
225 483 252 144 159 196
225 483 253 149 163 200
224 482 254 185 194 212
226 481 253 150 162 194
227 480 253 165 179 204
227 481 253 176 186 212
226 480 254 173 189 212
226 481 254 171 183 207
227 480 254 161 178 204
226 482 252 129 142 192
226 482 253 130 143 188
226 483 252 131 146 194
227 482 252 145 158 200
227 482 253 146 157 198
227 483 252 126 145 191
224 484 251 149 163 201
224 485 251 147 158 198
225 484 251 159 173 208
225 485 250 137 153 196
225 485 251 163 177 212
224 487 249 84 100 165
225 486 249 120 140 185
225 487 249 95 112 169
224 486 250 100 116 177
224 487 250 103 119 180
225 486 250 109 128 181
227 485 249 98 127 170
226 484 251 158 172 209
226 485 250 143 162 199
227 484 250 148 166 197
227 484 251 156 173 204
227 485 250 119 142 180
226 486 249 142 161 195
226 487 248 156 168 196
226 487 249 171 183 210
227 486 249 159 177 202
227 487 248 198 206 220
226 486 250 122 143 185
224 484 252 143 157 196
225 484 252 147 162 197
228 482 251 155 168 205
228 483 250 135 147 183
228 483 251 150 164 197
229 482 251 148 155 197
229 483 250 69 75 147
229 483 251 118 127 173
230 481 251 147 153 192
231 481 251 154 161 192
231 483 249 102 120 169
230 482 251 159 164 200
230 483 250 80 88 158
230 483 251 124 130 177
231 482 250 188 195 211
231 482 251 179 184 206
231 483 250 141 151 189
228 480 253 123 138 182
228 481 252 145 155 198
228 481 253 153 163 201
229 480 252 124 140 183
229 480 253 128 142 183
229 481 252 126 139 185
228 480 254 122 140 180
228 482 252 152 166 202
228 483 252 138 157 194
229 482 252 145 154 196
230 480 252 145 162 198
230 480 253 155 171 204
230 481 252 134 145 188
231 480 252 146 161 197
231 481 252 141 151 190
228 485 249 111 133 176
229 484 249 56 70 142
229 485 249 132 149 187
228 484 250 134 150 184
228 485 250 114 136 177
229 484 250 61 68 142
228 486 248 168 182 205
228 486 249 149 167 196
228 487 248 168 181 201
229 486 248 188 196 214
229 487 248 175 184 202
230 484 249 54 66 150
230 485 248 163 175 202
230 485 249 120 135 180
231 484 249 121 137 183
231 485 248 170 183 208
231 485 249 139 153 190
230 486 248 186 195 212
231 486 248 164 176 197
224 489 247 194 197 208
225 488 247 94 115 155
225 489 247 142 156 182
224 491 245 195 203 219
225 491 245 155 170 197
224 490 246 213 212 218
224 490 247 211 209 217
224 491 246 212 213 221
225 490 246 160 172 194
225 491 246 155 170 193
226 488 247 149 159 186
226 489 246 133 148 182
226 489 247 139 150 182
227 488 247 201 204 217
227 489 246 188 194 212
226 491 245 93 111 165
227 490 245 142 151 187
227 491 244 141 144 189
227 491 245 116 122 174
226 490 246 101 123 166
227 490 246 155 163 194
224 493 243 146 149 200
225 493 243 171 177 207
224 495 241 163 171 200
225 495 241 186 191 208
224 494 243 150 155 204
224 495 242 145 152 193
225 494 242 194 198 219
225 494 243 190 196 218
225 495 242 188 192 212
226 492 243 152 160 191
226 493 243 185 191 211
227 492 243 143 151 182
227 493 242 159 170 192
227 493 243 147 156 185
226 495 241 211 212 222
227 495 241 190 196 215
226 494 242 210 212 222
226 495 242 214 214 222
227 494 242 178 186 204
224 492 244 141 147 196
224 492 245 167 176 209
224 493 244 126 128 190
225 492 244 152 159 199
225 493 244 144 149 194
226 492 244 152 159 196
227 492 244 151 156 194
229 491 243 162 168 203
230 491 243 145 155 195
231 491 243 127 145 195
228 489 245 174 185 210
229 489 245 146 161 201
228 488 246 189 197 214
228 488 247 185 193 211
228 489 246 190 199 216
229 488 246 154 167 196
229 488 247 166 177 201
229 489 246 145 161 196
228 490 245 158 167 203
228 491 244 152 159 197
229 490 244 133 147 197
229 490 245 140 154 199
229 491 244 140 150 195
230 489 245 134 148 197
231 488 245 125 147 188
231 489 245 131 145 197
230 488 246 165 179 209
230 488 247 180 192 213
231 488 246 153 172 202
230 490 244 126 138 197
230 490 245 130 141 199
230 491 244 134 144 197
231 490 244 127 137 201
231 491 244 134 145 204
228 492 243 168 173 201
228 493 242 163 171 195
228 493 243 149 156 184
229 492 243 193 199 220
229 493 242 198 203 219
228 494 241 144 156 181
228 495 241 137 148 184
229 494 241 169 179 203
229 495 240 88 104 168
229 495 241 118 132 179
228 494 242 151 163 186
229 494 242 176 184 205
231 493 241 126 143 185
230 492 242 198 207 224
230 492 243 185 193 216
230 493 242 194 202 219
231 492 242 133 150 191
231 492 243 159 174 204
231 493 242 141 156 192
230 494 241 166 178 204
230 495 240 51 80 161
230 495 241 116 131 181
231 494 241 115 137 181
231 495 240 86 113 174
231 495 241 100 127 177
224 488 248 103 114 156
224 488 249 37 36 128
224 489 248 196 198 208
225 488 248 58 77 139
226 488 248 133 144 178
227 488 248 194 200 214
233 485 247 208 211 222
232 486 247 174 181 197
232 487 246 102 123 156
232 487 247 129 144 170
233 486 247 198 201 213
233 487 246 126 145 171
233 487 247 171 180 196
234 485 247 182 191 208
235 484 247 132 149 178
235 485 247 142 157 183
234 487 245 83 114 151
235 487 245 115 137 173
234 486 246 186 196 216
234 486 247 198 203 217
234 487 246 141 159 185
235 486 246 153 166 196
237 483 247 151 167 195
238 483 247 129 148 186
239 483 247 116 137 182
236 484 247 175 185 209
236 485 246 109 126 166
236 485 247 136 151 182
237 484 247 163 175 203
237 485 246 111 127 170
237 485 247 142 153 187
236 486 245 81 95 162
236 487 245 103 121 170
237 486 245 42 56 137
237 487 244 103 126 167
237 487 245 82 103 156
236 486 246 97 109 163
237 486 246 46 54 137
238 484 247 129 145 187
238 485 246 132 147 188
239 484 246 118 137 187
239 484 247 115 134 185
239 485 246 134 152 190
238 486 245 109 127 168
238 487 244 144 160 193
238 487 245 144 158 190
239 486 245 147 164 189
239 487 244 153 167 199
239 487 245 156 171 198
238 486 246 115 131 175
239 486 246 149 166 194
232 480 251 157 166 200
232 481 251 169 177 197
233 480 251 154 162 200
233 481 250 190 195 208
233 481 251 173 181 202
232 483 249 104 124 159
233 482 249 146 156 174
233 483 249 106 121 154
232 482 250 192 197 209
232 482 251 188 193 204
233 482 250 197 200 210
234 480 251 145 154 194
234 481 250 169 177 197
235 480 250 138 146 190
235 480 251 137 143 194
235 481 250 157 166 192
234 482 249 174 180 195
234 483 248 118 136 166
234 483 249 116 132 161
235 482 249 190 194 209
235 483 248 171 182 203
234 482 250 199 203 214
232 480 252 142 152 194
232 484 248 190 200 220
232 484 249 139 154 185
232 485 248 201 207 222
233 484 248 182 190 212
233 485 248 208 212 226
234 484 248 151 164 190
234 485 248 196 202 219
235 484 248 145 162 187
236 481 249 165 173 199
237 481 249 157 167 195
236 480 250 137 143 191
236 480 251 134 138 192
236 481 250 139 152 186
237 480 250 132 136 187
237 481 250 140 153 187
236 482 248 178 185 204
236 482 249 177 182 202
236 483 248 181 190 211
237 482 248 155 166 190
237 482 249 161 169 194
237 483 248 156 169 195
238 481 249 169 179 204
239 481 249 169 181 204
238 480 250 130 137 187
239 480 250 132 141 187
238 482 248 178 190 208
238 482 249 177 187 206
238 483 248 156 172 199
239 482 248 180 192 214
239 483 248 150 167 199
232 491 243 126 142 200
233 491 242 125 141 199
233 491 243 118 137 196
234 490 243 121 134 187
234 491 242 124 141 196
234 491 243 114 131 192
235 490 243 128 141 186
235 491 242 146 165 202
235 491 243 118 137 191
232 488 245 89 110 169
232 489 244 141 145 200
232 489 245 131 140 194
233 488 245 61 79 141
233 489 244 150 161 202
233 489 245 131 141 185
232 488 246 73 97 152
232 490 244 133 139 200
233 490 244 128 143 196
234 488 245 111 129 163
234 489 244 184 196 215
234 489 245 160 173 198
235 488 244 201 207 223
235 488 245 168 180 201
235 489 244 198 206 221
234 490 244 157 171 204
235 490 244 166 178 204
232 493 241 165 176 205
233 493 241 175 186 211
232 492 242 121 135 187
232 493 242 150 161 197
233 492 242 134 146 195
233 493 242 166 176 207
232 494 241 168 183 204
232 495 240 166 183 205
233 494 241 191 202 218
233 495 240 184 198 216
234 493 240 159 173 198
234 493 241 157 168 198
235 492 241 179 188 207
235 493 240 146 161 192
235 493 241 165 174 202
234 492 242 139 152 195
235 492 242 164 178 204
234 494 240 179 191 211
234 494 241 175 187 208
234 495 240 161 177 199
235 494 240 147 162 195
235 495 240 140 154 187
237 489 243 132 145 183
236 490 243 132 149 185
236 491 242 179 192 211
237 490 243 148 162 193
237 491 242 202 207 218
238 489 243 111 128 172
239 489 243 127 140 182
238 490 242 177 188 210
238 490 243 124 139 183
238 491 242 194 200 213
239 490 242 149 164 194
239 490 243 123 141 183
239 491 242 163 174 201
236 488 244 188 198 217
236 489 244 183 191 212
237 488 244 135 152 185
237 489 244 156 166 198
238 488 244 134 151 187
238 489 244 135 148 186
239 488 244 143 153 192
239 489 244 133 143 185
236 492 241 200 203 214
236 493 240 151 167 199
236 493 241 189 195 214
237 492 241 207 207 215
237 493 240 121 144 181
237 493 241 178 188 207
236 492 242 200 205 216
237 492 242 211 211 217
236 494 240 112 129 181
237 494 240 87 114 167
238 492 241 177 185 201
238 493 240 85 108 159
238 493 241 126 142 172
239 492 241 123 139 179
239 493 240 34 58 139
239 493 241 44 61 140
238 494 240 91 119 164
239 494 240 51 83 145
