ply
format ascii 1.0
comment Version 2, Copyright 2017, 8i Labs, Inc.
comment frame_to_world_scale 0.179523
comment frame_to_world_translation -45.2095 7.18301 -54.3561
comment width 1023
element vertex 164
property float x
property float y
property float z
property uchar red
property uchar green
property uchar blue
end_header
224 720 75 124 137 154
224 721 75 131 144 162
225 721 75 137 150 168
224 722 74 129 144 162
224 722 75 135 150 168
224 723 74 126 141 160
224 723 75 133 148 167
225 722 75 138 153 172
225 723 75 138 153 172
225 720 76 126 141 159
225 720 77 123 139 158
225 721 76 136 152 171
225 722 76 139 154 174
225 723 76 139 154 174
226 720 77 123 141 161
226 721 77 133 150 170
227 721 77 134 151 172
226 721 78 126 144 165
227 720 78 124 141 161
227 721 78 133 150 171
226 722 77 138 156 177
226 723 76 138 155 176
226 723 77 135 154 176
227 723 77 135 154 177
227 722 78 138 156 177
227 723 78 135 155 177
224 724 74 128 143 161
224 724 75 133 148 167
224 725 74 134 146 162
224 725 75 137 151 169
225 725 75 137 153 172
224 726 74 135 147 161
224 726 75 134 146 161
224 727 74 132 133 140
224 727 75 132 138 149
225 726 75 133 145 161
225 727 75 126 141 156
225 724 76 138 155 176
225 725 76 138 156 177
225 726 76 131 149 170
225 727 76 123 140 159
226 724 76 138 156 178
226 724 77 138 157 179
226 725 76 138 157 179
226 725 77 137 156 179
227 724 77 135 154 177
227 725 77 129 149 172
227 724 78 132 152 175
227 725 78 126 146 169
226 726 76 129 147 169
226 726 77 127 146 167
226 727 76 122 140 160
227 726 77 124 144 167
227 727 77 124 144 166
227 726 78 121 142 165
227 727 78 122 143 166
228 720 78 123 138 157
228 720 79 124 140 158
228 721 78 136 152 172
228 721 79 132 148 167
229 720 79 124 139 158
229 721 79 129 145 164
228 722 78 141 157 178
228 722 79 142 158 178
228 723 78 136 154 176
228 723 79 137 154 175
229 722 79 141 155 174
229 723 79 138 153 172
228 724 78 128 147 169
228 724 79 126 144 165
228 725 78 124 144 166
228 725 79 123 142 163
229 724 79 128 142 159
229 725 79 127 142 159
228 726 78 122 142 164
228 727 78 123 144 167
229 726 79 124 141 161
229 727 78 125 145 167
229 727 79 127 145 165
230 725 79 125 135 149
230 726 79 117 130 148
230 727 79 114 128 148
224 728 74 130 101 104
224 729 74 137 62 63
225 728 75 126 132 142
225 729 75 136 102 103
224 730 74 152 26 42
224 731 74 163 24 39
225 730 75 147 57 60
225 731 75 159 44 47
226 730 75 142 103 107
226 728 76 127 142 159
226 729 76 137 138 147
227 728 76 130 147 165
227 728 77 129 148 169
227 729 76 138 149 163
227 729 77 134 149 167
226 730 76 144 125 132
226 731 76 154 89 92
227 730 76 144 137 146
227 730 77 141 145 158
227 731 77 147 131 137
224 732 74 163 29 38
224 733 74 150 25 26
225 732 75 163 20 30
225 733 75 167 27 26
224 734 74 149 33 32
224 735 74 171 40 46
224 735 75 171 39 49
225 734 75 172 29 34
225 735 75 177 26 38
225 735 76 174 12 26
226 732 76 165 52 59
226 733 76 175 33 39
227 732 76 157 85 88
227 732 77 152 113 117
227 733 76 168 59 68
227 733 77 163 89 96
226 734 76 177 18 28
226 734 77 173 39 46
226 735 76 171 15 23
227 734 77 167 61 67
227 735 77 165 24 34
228 729 77 132 150 171
228 728 78 130 150 172
228 729 78 132 151 173
229 728 78 130 151 172
229 728 79 128 147 168
229 729 78 131 150 171
228 730 77 136 149 167
228 731 77 138 142 155
228 730 78 133 147 166
228 731 78 133 141 158
229 730 78 130 145 165
229 731 78 128 140 160
229 731 79 122 137 156
230 728 79 116 133 153
230 729 79 102 119 140
231 728 79 71 85 112
231 729 79 42 41 102
230 730 79 102 118 139
230 731 79 107 123 144
231 730 79 41 44 103
231 731 79 74 80 118
228 732 77 148 139 145
228 733 77 158 124 129
228 732 78 144 146 159
228 733 78 159 151 160
229 732 78 141 152 169
229 732 79 134 148 167
229 733 78 152 161 176
228 734 78 160 112 119
228 735 78 154 90 95
229 734 78 155 156 165
229 735 78 148 131 137
229 735 79 143 138 144
230 732 79 129 141 160
230 733 79 138 153 172
231 732 79 102 104 134
231 733 79 103 106 134
230 734 79 142 155 171
230 735 79 144 154 165
231 734 79 108 116 139
231 735 79 138 149 163
