ply
format ascii 1.0
comment Version 2, Copyright 2017, 8i Labs, Inc.
comment frame_to_world_scale 0.179523
comment frame_to_world_translation -45.2095 7.18301 -54.3561
comment width 1023
element vertex 160
property float x
property float y
property float z
property uchar red
property uchar green
property uchar blue
end_header
226 960 208 140 115 100
226 961 208 127 103 88
227 960 208 128 102 87
227 960 209 133 104 90
227 961 208 119 95 80
227 962 208 110 86 74
228 960 209 123 93 80
228 961 208 112 87 74
228 961 209 112 86 73
229 960 209 114 85 73
229 961 209 105 79 69
228 960 210 127 95 82
229 960 210 119 88 76
228 962 208 105 81 70
228 963 208 96 75 64
229 962 208 100 77 67
229 962 209 95 73 63
229 963 208 92 71 61
230 961 209 97 73 63
230 960 210 110 82 72
230 960 211 112 83 73
230 961 210 98 75 65
231 960 210 108 82 71
231 960 211 112 84 71
231 961 210 100 78 66
230 962 209 91 70 59
230 963 209 88 68 58
231 963 209 87 67 56
231 962 210 94 75 62
231 963 210 92 73 63
229 964 208 87 68 58
229 965 208 84 67 57
230 964 208 88 68 59
230 964 209 85 67 57
230 965 208 84 67 57
230 965 209 89 73 63
231 964 209 91 74 64
231 965 209 96 80 70
231 964 210 91 73 62
230 966 208 87 72 62
230 966 209 91 76 66
230 967 208 90 76 66
231 966 209 95 79 69
231 967 208 96 80 72
231 967 209 94 78 69
230 968 208 94 80 71
231 968 208 93 78 69
231 969 208 91 75 65
232 960 211 112 86 73
232 961 210 103 81 67
233 960 211 116 90 77
233 961 210 104 82 69
233 961 211 108 84 71
232 962 210 100 80 69
232 963 210 99 81 69
233 962 210 103 81 69
233 963 210 98 78 66
234 960 211 118 93 79
234 961 211 109 86 71
235 960 211 115 90 74
235 961 211 108 84 69
234 962 210 104 82 70
234 962 211 105 83 71
234 963 210 102 82 69
235 962 211 105 81 69
235 963 210 102 81 68
235 960 212 125 99 84
232 965 209 97 80 67
232 964 210 98 80 68
232 965 210 98 81 68
233 964 210 98 80 67
233 965 210 100 83 70
232 966 209 96 79 66
232 967 209 94 77 65
233 966 209 101 84 72
233 967 209 101 84 72
232 966 210 97 81 68
233 966 210 101 84 71
234 964 210 99 81 67
234 965 210 98 79 66
235 964 210 101 83 69
235 965 210 102 85 71
234 967 209 98 81 70
235 967 209 99 82 71
234 966 210 99 81 69
234 967 210 98 81 70
235 966 210 99 82 69
235 967 210 99 81 70
236 960 211 115 90 73
236 961 211 112 88 74
237 960 211 116 89 72
237 961 211 112 87 73
236 962 211 108 84 72
236 963 210 103 80 68
237 962 211 107 83 71
237 963 210 102 80 68
238 960 211 115 89 74
238 961 211 110 86 72
239 960 211 119 93 79
239 961 211 113 89 76
238 962 211 105 82 69
238 963 210 100 78 64
238 963 211 101 78 66
239 962 211 109 86 74
239 963 210 103 81 68
236 960 212 122 97 80
237 960 212 122 94 77
238 960 212 121 92 76
239 960 212 122 93 80
236 964 210 99 81 65
236 965 210 101 84 70
237 964 210 100 83 68
237 965 210 100 83 67
236 967 209 97 80 68
236 966 210 100 83 70
236 967 210 99 81 68
237 966 210 99 81 65
237 967 210 99 80 65
238 964 210 102 84 69
238 965 210 107 90 74
239 964 210 101 82 65
239 965 210 108 90 75
238 966 210 106 88 73
238 967 210 104 83 69
239 966 210 111 93 79
239 967 210 110 91 76
232 968 208 94 77 65
232 968 209 93 76 64
232 969 208 94 77 65
233 968 209 100 84 73
233 969 208 101 85 74
233 969 209 99 82 71
233 970 208 100 84 74
234 968 209 98 81 71
234 969 208 99 82 72
234 969 209 99 82 73
235 968 209 98 81 71
235 969 208 97 81 71
235 969 209 97 81 71
234 970 208 98 83 72
235 970 208 97 81 70
236 968 209 96 79 67
236 969 208 96 79 68
236 969 209 95 78 67
237 968 209 98 79 64
237 969 208 94 73 63
237 969 209 97 77 65
236 970 208 96 79 69
237 970 208 92 73 64
237 971 208 90 72 64
238 968 209 105 85 70
238 969 209 102 81 68
239 968 209 107 89 74
239 969 209 106 87 73
239 968 210 109 91 76
238 970 208 101 80 68
238 971 208 98 79 68
239 970 208 106 86 73
239 970 209 107 87 73
239 971 208 105 87 75
