ply
format ascii 1.0
comment Version 2, Copyright 2017, 8i Labs, Inc.
comment frame_to_world_scale 0.179523
comment frame_to_world_translation -45.2095 7.18301 -54.3561
comment width 1023
element vertex 195
property float x
property float y
property float z
property uchar red
property uchar green
property uchar blue
end_header
231 157 256 90 77 81
231 158 256 95 72 75
231 159 256 92 59 66
233 144 256 97 63 57
233 145 256 91 83 84
233 146 256 56 70 83
234 144 257 90 61 58
234 145 256 81 79 87
234 145 257 76 75 86
234 144 258 86 60 63
234 145 258 70 63 80
235 144 259 90 67 69
235 145 258 65 71 89
235 145 259 62 70 88
234 146 256 47 65 85
234 146 257 46 66 89
234 147 256 35 60 86
234 147 257 23 51 83
235 146 257 28 57 85
235 147 257 22 58 86
235 146 258 45 72 95
235 146 259 50 78 100
235 147 258 18 60 88
235 144 260 87 71 71
235 145 260 67 67 79
234 148 256 50 73 94
234 149 256 37 64 87
235 148 257 50 76 99
235 149 256 34 65 89
235 149 257 33 67 92
235 148 258 48 77 101
235 149 258 50 78 102
234 150 256 55 76 95
234 151 256 52 72 90
235 150 256 47 74 95
235 150 257 35 71 94
235 151 256 55 75 96
235 151 257 53 76 97
236 146 259 53 81 103
236 147 259 29 66 94
236 144 260 80 72 77
236 144 261 77 74 80
236 145 260 56 73 90
237 144 261 67 67 74
237 145 261 50 72 90
237 144 262 63 63 68
236 146 260 55 82 103
236 147 260 45 75 99
237 146 260 58 84 104
237 146 261 57 82 104
237 147 260 55 81 103
237 147 261 63 87 108
238 144 262 53 61 75
238 145 262 44 69 91
238 145 263 55 77 99
239 144 262 50 55 72
239 144 263 45 62 79
239 145 263 53 75 95
238 146 262 52 78 99
238 147 262 62 85 105
239 146 263 46 74 95
239 147 263 54 79 100
236 148 258 58 85 107
236 148 259 47 77 103
236 149 258 37 72 98
236 149 259 49 80 105
236 150 257 40 73 96
236 151 257 47 75 97
236 150 258 29 68 94
236 150 259 28 61 90
236 151 258 48 76 98
237 150 259 27 63 90
237 151 259 46 73 97
236 148 260 48 79 103
237 148 260 47 77 100
237 148 261 45 75 98
237 149 260 51 81 104
237 149 261 50 78 100
237 150 260 25 63 90
237 151 260 39 68 94
238 148 261 43 74 97
238 149 261 48 75 97
238 148 262 42 70 93
238 149 262 40 67 93
239 148 263 52 74 96
239 149 262 41 67 93
239 149 263 36 58 88
238 150 260 14 58 86
238 150 261 28 63 88
238 151 260 40 71 95
238 151 261 24 63 90
239 151 261 32 70 95
238 150 262 39 70 93
239 150 262 35 68 92
239 150 263 43 70 94
239 151 262 26 63 91
239 151 263 37 70 95
233 153 256 79 83 91
232 155 256 79 75 83
233 154 256 74 74 83
233 155 256 75 74 82
234 152 256 41 63 81
234 153 256 72 83 94
235 152 256 41 65 87
235 152 257 37 65 87
235 153 256 51 72 90
235 153 257 53 75 92
234 154 256 73 80 89
234 154 257 61 73 86
234 155 256 67 70 80
234 155 257 62 68 79
235 154 257 54 72 88
235 155 257 52 66 82
235 155 258 49 65 80
232 156 256 81 75 81
232 157 256 86 69 77
233 156 256 81 75 82
233 156 257 80 75 82
233 157 257 86 65 75
232 158 256 93 61 72
232 158 257 92 54 69
232 159 256 93 51 65
232 159 257 92 48 63
233 158 257 90 49 66
233 159 257 92 48 63
233 159 258 93 51 63
234 156 257 76 75 82
234 157 257 85 70 77
234 156 258 75 77 82
234 157 258 87 70 77
235 156 258 67 74 81
235 157 258 89 80 83
235 157 259 93 78 82
234 158 258 89 52 64
234 159 258 92 50 61
234 159 259 91 53 59
235 158 259 90 59 66
235 159 259 87 51 55
236 152 257 35 65 90
236 153 257 41 70 90
236 152 258 38 67 92
236 153 258 38 68 89
237 152 258 37 69 93
237 152 259 50 77 99
237 153 258 38 67 89
237 153 259 39 68 90
236 154 257 51 72 89
236 154 258 56 74 89
236 155 258 46 64 81
236 155 259 45 64 78
237 154 258 56 75 92
237 154 259 56 75 91
237 155 259 43 66 83
238 153 259 38 69 91
238 154 259 49 72 91
238 155 259 52 71 87
238 152 260 66 89 109
238 152 261 57 85 107
238 153 260 42 72 94
239 152 261 56 83 107
239 153 260 35 67 93
239 153 261 42 72 98
239 152 262 40 71 98
239 153 262 58 81 105
238 154 260 46 72 91
238 155 260 56 75 91
239 154 260 43 71 92
239 154 261 34 67 90
239 155 261 55 77 96
236 156 258 53 66 78
236 156 259 65 71 79
236 157 259 82 71 77
237 156 259 51 63 76
237 157 259 69 66 78
236 158 259 85 55 64
237 157 260 69 58 71
236 158 260 79 47 59
236 159 260 83 46 53
237 158 260 71 41 56
237 159 260 77 39 50
237 159 261 73 34 49
238 156 260 42 60 77
238 156 261 39 56 74
238 157 260 55 48 68
238 157 261 49 39 64
239 156 260 38 64 81
239 156 261 46 66 84
239 157 261 41 43 68
239 157 262 44 37 64
238 158 261 61 40 59
238 159 261 68 40 55
239 158 261 52 40 62
238 159 262 65 46 58
239 158 262 51 38 60
239 159 262 55 42 57
