ply
format ascii 1.0
comment Version 2, Copyright 2017, 8i Labs, Inc.
comment frame_to_world_scale 0.179523
comment frame_to_world_translation -45.2095 7.18301 -54.3561
comment width 1023
element vertex 306
property float x
property float y
property float z
property uchar red
property uchar green
property uchar blue
end_header
247 295 173 74 96 117
247 294 174 78 99 119
247 294 175 82 101 120
247 295 174 80 100 120
247 295 175 88 105 123
247 303 160 111 106 106
247 303 161 115 118 124
247 302 163 98 112 128
247 303 162 102 114 128
247 303 163 91 109 128
247 301 166 87 107 127
247 301 167 88 108 128
247 302 164 86 105 125
247 302 165 79 103 126
247 303 164 80 104 126
247 303 165 79 104 128
247 302 166 83 106 127
247 302 167 86 107 128
247 303 166 84 108 130
247 303 167 86 108 130
247 297 171 83 104 125
247 298 169 78 102 125
247 299 169 79 103 126
247 298 170 76 100 123
247 298 171 75 99 122
247 299 170 72 98 122
247 299 171 72 98 121
247 296 172 81 101 121
247 296 173 78 99 119
247 297 172 83 103 124
247 297 173 81 101 121
247 296 174 85 103 122
247 296 175 94 108 125
247 297 174 87 104 122
247 297 175 96 110 126
246 299 173 83 103 122
247 298 172 73 98 121
247 298 173 78 99 120
247 299 172 75 99 121
247 299 173 81 101 121
246 298 174 91 107 124
246 298 175 98 112 128
246 299 174 86 104 123
246 299 175 88 106 124
247 298 174 86 103 121
247 298 175 91 106 123
247 300 168 87 108 129
247 300 169 76 102 125
247 301 168 85 107 128
247 301 169 76 101 125
247 300 170 72 99 122
247 300 171 76 100 123
247 301 170 76 100 123
247 301 171 82 102 123
246 303 169 81 103 124
247 302 168 83 106 127
247 302 169 77 102 124
247 303 168 83 106 128
247 303 169 80 103 125
246 302 170 85 104 125
246 302 171 91 107 124
246 303 170 88 106 125
246 303 171 101 112 126
247 302 170 80 102 124
245 303 175 127 131 140
246 300 173 85 104 123
246 301 172 90 107 125
246 301 173 97 111 126
247 300 172 80 102 123
247 300 173 82 102 123
247 301 172 85 104 123
246 300 174 84 103 122
246 300 175 84 102 121
246 301 174 97 111 126
246 301 175 98 111 127
246 302 172 105 115 128
246 302 173 116 123 133
246 303 172 112 119 129
246 303 173 119 122 130
246 302 174 120 126 136
246 302 175 121 127 138
246 303 174 125 127 134
246 303 175 127 130 138
249 291 162 102 116 133
250 288 160 115 122 133
250 288 161 118 123 133
250 289 160 102 113 127
250 289 161 105 115 128
251 288 160 119 125 136
251 288 161 125 128 137
250 288 162 123 128 137
250 289 162 115 123 134
250 289 163 125 131 141
251 288 162 130 132 140
251 288 163 135 136 144
250 290 160 98 113 129
250 290 161 95 111 127
250 291 160 102 116 133
250 291 161 98 114 130
250 290 162 101 114 130
250 290 163 106 118 132
250 291 162 98 113 130
250 291 163 98 112 129
250 289 164 129 133 143
250 289 165 123 128 137
251 288 164 135 136 143
251 288 165 129 131 138
250 288 166 120 125 133
250 288 167 117 122 131
250 289 166 115 121 131
250 289 167 109 116 127
251 288 166 123 126 134
250 290 164 108 119 133
250 290 165 105 116 130
250 291 164 92 107 123
250 291 165 92 106 123
250 290 166 96 109 124
250 290 167 95 107 121
250 291 166 88 104 121
250 291 167 86 101 118
249 292 161 99 114 131
249 293 160 94 110 128
249 293 161 98 113 130
249 292 162 106 120 136
249 292 163 106 119 134
249 293 162 108 121 136
249 293 163 110 122 138
249 294 160 86 104 123
249 294 161 82 102 121
249 295 160 87 106 125
249 295 161 83 102 122
249 294 162 97 112 129
249 294 163 101 115 131
249 295 162 84 102 120
249 295 163 79 99 118
250 292 160 99 114 131
249 292 164 101 115 130
249 292 165 92 107 123
249 293 164 105 118 133
249 293 165 96 110 126
249 292 166 87 103 121
249 292 167 85 103 121
249 293 166 92 108 125
249 293 167 92 109 127
249 294 164 99 113 130
249 294 165 97 111 128
249 295 164 77 98 117
249 295 165 82 100 120
249 294 166 98 114 131
249 294 167 96 113 131
249 295 166 89 107 126
249 295 167 86 106 125
250 292 164 96 110 126
250 292 165 91 106 122
250 292 166 88 104 121
249 289 171 130 133 140
249 290 169 103 114 128
249 291 168 87 102 118
249 291 169 85 101 118
249 290 170 112 120 133
249 290 171 112 121 134
249 291 170 85 102 119
249 291 171 85 102 120
250 288 168 116 120 129
250 288 169 120 122 130
250 289 168 108 115 126
250 289 169 115 120 129
250 288 170 124 125 132
250 288 171 130 131 137
250 289 170 124 127 135
250 289 171 130 132 139
250 290 168 99 110 123
250 290 169 107 116 128
250 291 168 88 103 119
249 288 172 132 134 140
249 288 173 129 131 138
249 289 172 131 133 141
249 289 173 126 129 137
248 289 175 115 119 127
249 288 174 121 124 132
249 288 175 114 119 127
249 289 174 119 122 131
249 289 175 111 116 124
248 290 173 87 101 116
248 291 172 76 97 117
248 291 173 73 94 113
249 290 172 111 120 133
249 290 173 109 117 129
249 291 172 82 100 118
249 291 173 74 94 113
248 290 174 102 111 123
248 290 175 113 119 128
248 291 174 77 94 112
248 291 175 90 102 116
249 290 174 114 120 129
250 288 172 133 134 140
249 292 168 86 103 120
249 292 169 76 96 115
249 293 168 91 108 126
249 293 169 82 103 122
248 292 171 82 101 121
248 293 170 79 100 121
248 293 171 81 102 122
249 292 170 76 97 117
249 292 171 81 101 120
249 293 170 79 100 121
248 294 169 89 108 127
248 295 168 77 100 120
248 295 169 75 98 120
249 294 168 93 110 129
249 294 169 92 109 128
249 295 168 86 105 125
248 294 170 84 104 125
248 294 171 76 99 120
248 295 170 76 99 120
248 295 171 70 95 117
248 292 172 80 100 121
248 292 173 80 101 120
248 293 172 80 101 122
248 293 173 82 103 123
248 292 174 85 102 120
248 292 175 91 105 122
248 293 174 86 104 124
248 293 175 89 105 123
248 294 172 70 95 117
248 294 173 72 96 118
248 295 172 63 90 112
248 295 173 65 91 114
248 294 174 79 100 120
248 294 175 82 101 120
249 296 160 95 113 131
249 296 161 94 111 128
249 297 160 94 111 128
249 297 161 94 109 125
249 296 162 94 109 125
249 296 163 87 103 121
249 297 162 92 105 120
249 297 163 89 103 120
248 298 161 71 75 90
248 299 160 76 85 97
248 299 161 75 75 83
249 298 160 83 99 116
249 298 161 79 92 106
249 299 160 78 92 107
248 298 162 78 84 95
248 298 163 92 103 116
248 299 162 91 91 96
248 299 163 109 113 122
249 298 162 81 93 108
249 296 164 80 99 118
249 296 165 82 100 120
249 297 164 88 103 120
249 297 165 89 105 123
248 296 167 78 99 119
248 297 166 90 107 125
248 297 167 87 105 123
249 296 166 82 102 121
249 296 167 77 98 119
249 297 166 88 105 123
248 298 164 103 113 127
248 298 165 103 115 130
248 299 164 113 121 133
248 299 165 107 119 134
249 298 165 98 112 127
248 298 166 99 114 131
248 298 167 96 113 131
248 299 166 101 116 133
248 299 167 96 114 133
248 300 160 73 74 82
248 300 161 86 77 80
248 301 160 79 71 75
248 301 161 98 91 93
248 300 162 106 103 106
248 300 163 119 121 129
248 301 162 116 116 121
248 301 163 117 122 132
248 302 160 89 82 82
248 302 161 106 105 108
248 303 160 104 97 97
248 303 161 114 113 117
248 302 162 112 117 127
248 302 163 106 116 130
248 300 164 113 122 134
248 300 165 101 115 131
248 301 164 104 116 131
248 301 165 91 109 127
248 300 166 95 112 130
248 300 167 92 110 130
248 301 166 89 108 128
248 302 164 93 109 126
248 302 165 85 105 126
248 296 168 73 96 116
248 296 169 69 94 115
248 297 168 84 103 123
248 297 169 82 103 123
248 296 170 76 99 120
248 296 171 78 100 121
248 297 170 81 103 124
248 297 171 83 104 125
248 298 168 93 110 129
248 298 169 85 105 126
248 299 168 91 111 131
248 299 169 85 107 128
248 298 170 80 102 124
248 296 172 77 98 119
248 300 168 90 111 131
