ply
format ascii 1.0
comment Version 2, Copyright 2017, 8i Labs, Inc.
comment frame_to_world_scale 0.179523
comment frame_to_world_translation -45.2095 7.18301 -54.3561
comment width 1023
element vertex 380
property float x
property float y
property float z
property uchar red
property uchar green
property uchar blue
end_header
240 497 237 202 203 212
241 497 237 192 196 208
240 496 238 209 206 211
240 496 239 207 206 213
240 497 238 209 207 212
241 496 238 200 202 212
241 496 239 193 198 211
241 497 238 200 202 212
240 498 237 172 181 203
240 499 236 120 137 181
241 498 237 158 168 192
241 499 236 138 154 187
243 497 237 132 149 192
242 496 238 166 177 202
242 497 238 179 188 208
243 496 238 122 141 184
243 497 238 139 155 191
242 498 237 143 156 187
242 499 236 159 174 199
243 498 236 141 159 191
243 498 237 128 145 185
243 499 236 166 182 205
240 500 235 124 145 188
240 501 235 98 123 176
241 500 235 133 151 186
241 501 235 78 98 161
240 503 233 146 158 186
241 503 233 140 153 186
240 502 234 131 149 188
240 502 235 102 116 175
240 503 234 148 163 190
241 502 234 88 103 165
241 503 234 130 142 181
242 500 235 113 131 169
242 501 235 62 81 145
243 500 235 93 120 161
243 501 235 85 111 156
242 503 233 111 129 165
243 503 233 133 146 172
242 502 234 66 79 144
242 503 234 106 122 160
243 502 234 126 138 169
243 503 234 154 162 183
240 500 236 122 145 185
241 500 236 161 175 203
242 500 236 161 176 201
243 500 236 130 151 182
244 497 237 122 140 193
245 497 237 121 139 195
244 496 238 117 133 188
244 497 238 116 134 188
245 496 238 122 136 192
245 497 238 119 135 194
244 498 236 141 159 196
244 498 237 117 138 187
244 499 236 144 161 197
245 498 236 131 148 195
245 498 237 123 142 193
245 499 236 126 144 192
246 497 237 124 141 194
247 497 237 137 156 197
246 496 238 130 145 190
246 497 238 119 134 189
247 496 238 135 152 187
247 497 238 128 147 189
246 498 236 127 146 192
246 498 237 129 147 194
246 499 236 130 147 194
247 498 237 134 154 195
247 499 236 113 133 179
247 499 237 112 134 180
244 500 235 88 119 167
244 501 235 112 139 173
245 500 235 107 129 181
245 501 235 125 146 181
244 503 233 184 188 201
245 503 233 203 204 212
244 502 234 188 194 206
244 503 234 194 196 205
245 502 234 193 198 211
245 503 234 204 205 213
246 500 235 133 147 194
246 501 235 131 147 188
247 500 235 150 163 195
247 501 235 144 157 192
246 503 233 200 203 214
247 503 233 176 185 205
246 502 234 170 180 201
246 503 234 193 197 211
247 502 234 139 152 186
247 502 235 135 150 186
247 503 234 158 170 195
246 500 236 135 148 195
247 500 236 132 147 184
240 506 231 165 177 200
240 507 231 114 138 179
241 506 231 133 149 187
241 507 231 107 131 179
242 506 231 114 134 182
242 507 230 111 130 181
242 507 231 107 129 180
243 506 231 113 131 182
243 507 231 105 127 179
240 508 230 118 141 187
240 508 231 102 130 179
240 509 230 130 150 188
241 508 230 114 136 184
241 508 231 116 139 187
241 509 230 121 142 183
240 510 229 160 173 199
240 511 228 158 170 190
240 511 229 176 184 200
241 510 229 170 182 202
241 511 229 194 197 207
242 509 229 113 138 177
243 509 229 103 129 174
242 508 230 110 130 182
242 508 231 116 135 185
242 509 230 104 127 178
243 508 230 117 133 184
243 509 230 108 128 181
242 510 229 155 170 195
242 511 228 189 191 201
242 511 229 189 193 206
243 510 229 131 150 183
243 511 229 172 178 197
244 506 231 116 137 185
244 507 231 119 140 185
245 506 231 124 147 191
245 507 231 127 150 189
246 506 231 121 148 191
246 507 231 137 160 192
247 507 231 152 172 198
244 508 230 117 133 185
244 508 231 124 142 187
244 509 230 101 122 177
245 508 230 112 134 174
245 508 231 133 153 186
245 509 230 101 126 169
244 510 229 121 141 179
244 511 228 149 162 184
244 511 229 145 159 185
245 510 229 137 154 187
245 511 229 146 161 188
244 510 230 108 129 178
245 510 230 120 140 182
246 508 230 149 166 188
246 508 231 163 179 199
246 509 230 145 162 184
247 508 230 195 199 210
247 508 231 183 193 208
247 509 230 195 199 210
246 510 229 140 156 182
246 511 229 127 141 173
247 510 229 168 177 193
247 511 229 140 152 175
246 510 230 156 170 193
247 510 230 193 196 206
240 504 233 161 171 190
240 505 232 177 183 197
241 504 233 146 161 188
241 505 232 150 164 188
241 505 233 150 166 190
240 506 232 181 188 205
241 506 232 144 157 190
242 504 233 127 146 178
242 505 232 145 162 192
242 505 233 148 166 194
243 504 233 118 135 167
243 505 232 112 127 172
242 506 232 129 145 186
243 506 232 116 132 182
244 504 233 162 169 190
244 505 232 115 125 169
245 504 233 197 200 212
245 505 232 133 148 184
245 505 233 173 184 204
244 506 232 109 126 177
245 506 232 122 142 186
246 504 233 201 205 216
246 505 232 154 171 198
246 505 233 184 195 211
247 504 233 185 193 210
247 505 232 150 169 198
247 505 233 174 188 208
246 506 232 124 148 188
247 506 232 122 148 190
247 507 232 115 145 187
248 496 238 127 145 183
248 497 238 151 169 202
249 496 238 99 114 166
249 496 239 108 128 170
249 497 238 110 127 174
248 498 237 144 163 197
248 499 236 114 134 173
248 499 237 112 135 174
249 498 237 115 134 177
249 499 236 160 172 198
249 499 237 107 125 169
250 496 238 68 92 151
250 496 239 84 110 160
250 497 238 46 56 141
251 496 239 99 125 175
251 497 238 41 63 142
251 497 239 66 91 155
250 498 237 72 85 153
250 499 237 106 118 167
251 498 237 50 53 141
251 499 237 99 116 162
250 498 238 59 65 148
251 498 238 54 68 144
251 499 238 86 97 156
248 500 235 171 182 202
248 501 235 176 185 203
249 501 235 196 199 210
248 502 234 146 159 186
248 502 235 155 168 192
248 503 234 142 156 186
249 502 235 190 193 205
249 503 234 163 173 194
250 501 235 200 201 210
250 502 235 197 199 209
250 503 234 188 193 206
250 503 235 196 198 207
251 502 235 185 192 207
251 503 235 193 196 207
248 500 236 165 177 198
249 500 236 192 198 213
249 501 236 199 201 211
250 500 236 181 189 209
250 500 237 157 169 196
250 501 236 192 196 210
251 500 237 135 152 179
251 501 236 156 168 192
251 502 236 170 180 200
252 496 239 104 131 181
252 497 239 91 111 168
253 497 239 102 124 175
252 498 238 85 102 158
252 498 239 92 110 164
252 499 238 123 137 176
253 498 239 110 129 174
253 499 238 130 148 182
253 499 239 124 144 179
254 498 239 121 142 179
254 499 239 131 151 185
255 499 239 151 169 199
252 503 235 164 174 195
252 500 237 154 169 193
252 501 236 135 152 178
252 501 237 147 163 186
253 500 237 170 183 204
253 501 237 163 178 200
252 500 238 164 177 201
253 500 238 153 171 196
253 501 238 156 175 201
252 502 236 139 154 181
252 503 236 141 154 180
253 502 236 133 149 176
253 502 237 154 170 195
253 503 236 141 155 183
253 503 237 154 169 198
254 500 238 130 153 183
254 500 239 132 153 186
254 501 238 135 157 190
255 500 239 153 169 198
255 501 238 132 151 187
255 501 239 141 157 190
254 502 237 155 174 203
254 503 237 153 170 200
255 503 237 122 143 187
254 502 238 139 161 195
255 502 238 124 145 183
255 502 239 141 158 188
255 503 238 118 140 183
248 507 231 159 176 199
249 507 231 176 189 207
248 508 231 198 200 210
248 509 230 201 200 208
249 508 231 187 194 208
249 509 230 202 199 205
249 509 231 199 200 207
248 511 229 182 187 202
249 511 229 158 170 193
248 510 230 202 200 206
249 510 230 203 200 205
249 511 230 199 199 207
250 508 231 157 174 201
250 509 230 199 200 208
250 509 231 187 194 209
251 508 231 107 130 176
251 509 231 140 156 188
250 511 229 110 130 171
250 510 230 198 200 208
250 510 231 187 194 207
250 511 230 180 187 203
251 510 230 184 193 209
251 510 231 161 174 199
251 511 230 139 154 190
252 509 231 58 84 148
252 510 231 106 122 173
252 511 230 103 119 178
252 511 231 118 131 184
253 510 231 74 98 154
253 511 231 97 113 174
254 511 231 96 115 171
248 504 233 152 166 196
248 505 233 138 156 195
249 504 233 125 140 182
249 505 233 110 129 183
249 504 234 141 154 186
248 506 232 109 136 185
248 507 232 113 142 184
249 506 232 93 121 180
249 507 232 117 143 185
250 504 233 136 151 187
250 505 233 108 129 180
251 505 233 112 134 181
250 504 234 165 176 201
251 504 234 192 197 211
251 504 235 195 199 211
251 505 234 159 172 200
250 506 232 92 121 181
250 506 233 89 116 177
250 507 232 113 139 186
251 506 233 81 110 174
251 507 232 74 108 172
250 508 232 113 138 183
251 508 232 83 112 169
252 505 233 93 118 173
252 504 234 186 193 210
252 504 235 174 183 202
252 505 234 128 144 187
253 504 235 138 153 184
253 505 234 119 134 185
253 505 235 138 152 192
252 506 233 48 79 158
252 507 232 71 94 163
252 507 233 51 79 154
253 506 233 33 64 147
253 507 233 63 84 150
253 506 234 71 92 163
253 507 234 56 86 151
254 504 235 127 143 183
254 505 235 106 125 182
254 507 233 76 100 155
254 506 234 77 101 167
254 506 235 78 104 172
254 507 234 84 110 166
255 506 235 76 103 172
255 507 234 93 117 171
255 507 235 82 110 168
253 504 236 133 149 181
254 504 236 142 159 193
254 505 236 116 135 186
255 504 236 123 141 190
255 504 237 123 143 189
255 505 236 100 121 183
255 506 236 79 106 173
252 508 232 84 105 162
252 509 232 66 93 143
253 508 232 140 155 182
253 508 233 137 150 183
253 509 232 114 133 164
253 510 232 98 122 158
254 508 233 150 165 193
254 509 232 160 172 193
254 509 233 182 192 208
255 509 233 171 183 203
254 508 234 116 138 177
255 508 234 126 145 181
255 508 235 114 137 179
255 509 234 152 166 194
254 510 232 141 159 184
254 510 233 172 185 202
254 511 232 109 130 171
255 510 233 156 169 197
255 511 232 114 136 174
255 511 233 124 145 181
255 510 234 155 169 198
