ply
format ascii 1.0
comment Version 2, Copyright 2017, 8i Labs, Inc.
comment frame_to_world_scale 0.179523
comment frame_to_world_translation -45.2095 7.18301 -54.3561
comment width 1023
element vertex 303
property float x
property float y
property float z
property uchar red
property uchar green
property uchar blue
end_header
242 640 96 60 104 156
242 641 96 78 116 161
243 640 97 108 134 171
243 641 97 93 125 167
242 642 96 82 118 162
242 642 97 67 112 160
242 643 96 77 119 169
242 643 97 67 115 167
243 642 97 80 119 168
243 643 97 76 117 170
241 647 96 93 132 175
242 644 96 71 119 172
242 644 97 66 111 171
242 645 96 78 123 172
242 645 97 76 116 168
243 644 97 72 112 169
243 645 97 81 115 165
243 644 98 72 110 165
243 645 98 96 123 165
242 646 96 82 124 169
242 646 97 89 123 161
242 647 96 95 129 172
242 647 97 116 137 170
243 646 97 112 134 164
243 647 97 150 159 176
243 646 98 140 152 174
243 647 98 154 159 171
244 640 98 117 138 170
244 641 98 108 134 174
245 640 98 113 136 169
245 640 99 111 136 170
245 641 98 108 134 173
245 641 99 113 138 173
244 642 98 79 118 169
244 643 98 58 106 163
245 642 98 84 120 165
245 642 99 91 123 159
245 643 98 65 108 155
245 643 99 103 127 157
246 640 99 113 137 169
246 641 99 123 141 170
246 642 99 132 144 167
246 643 99 150 154 169
246 641 100 148 155 174
247 640 100 123 140 165
247 641 100 155 160 176
246 642 100 163 163 175
246 643 100 172 168 173
247 642 100 170 168 176
247 643 100 174 171 175
244 644 98 89 122 165
244 645 98 133 146 171
245 644 99 118 134 159
245 645 99 156 158 170
244 646 98 158 161 173
244 647 98 144 148 157
245 646 99 169 165 169
245 647 99 170 166 172
246 644 99 160 159 169
246 645 99 172 167 176
246 646 99 173 167 170
246 647 99 169 163 166
246 644 100 174 170 174
246 645 100 171 166 172
247 644 100 158 159 170
247 645 100 148 151 161
246 646 100 167 162 168
246 647 100 161 159 167
247 646 100 161 160 169
247 647 100 162 159 167
241 648 96 106 136 171
241 649 96 120 141 169
241 650 96 138 151 173
241 651 96 160 163 177
242 648 96 116 138 170
242 648 97 144 156 181
242 649 96 142 153 171
242 649 97 149 157 173
243 648 97 141 152 172
243 649 97 127 139 155
243 648 98 123 136 154
243 649 98 134 143 156
242 650 96 161 164 174
242 650 97 151 153 163
242 651 96 168 166 174
242 651 97 163 161 169
243 650 97 142 146 157
243 651 97 166 164 170
243 650 98 152 155 163
243 651 98 166 164 170
240 653 96 163 163 174
241 652 96 165 164 172
241 653 96 165 162 167
240 654 96 167 164 172
241 654 96 150 150 161
241 655 96 156 155 161
242 652 96 162 161 166
242 652 97 151 152 159
242 653 96 152 153 159
242 653 97 142 146 156
243 652 97 162 159 164
243 653 97 160 159 166
243 652 98 166 162 167
243 653 98 166 163 169
242 654 96 132 138 150
242 654 97 149 153 165
242 655 96 152 155 165
242 655 97 163 164 174
243 654 97 164 164 173
243 655 97 168 168 177
243 654 98 163 163 170
243 655 98 155 156 165
244 648 98 141 146 160
244 649 98 159 160 169
245 648 99 171 168 180
245 649 99 170 167 177
244 650 98 164 163 169
244 651 98 164 162 169
245 650 98 165 162 167
245 650 99 155 153 159
245 651 98 160 156 164
245 651 99 160 157 161
246 648 99 155 156 166
246 649 99 137 141 153
246 650 99 144 146 155
246 651 99 164 161 166
246 648 100 131 136 147
247 648 100 153 153 160
247 649 100 158 157 164
247 650 100 164 161 167
247 651 100 166 162 165
244 652 98 164 161 168
244 653 98 157 157 164
245 652 98 162 158 165
245 652 99 164 160 163
245 653 98 145 146 153
245 653 99 156 153 158
244 654 98 146 148 157
244 655 98 137 140 150
245 654 98 138 141 150
245 654 99 158 157 164
245 655 98 149 150 159
245 655 99 161 159 166
246 652 99 170 164 167
246 653 99 167 162 166
247 652 99 168 163 167
247 653 99 162 160 167
246 654 99 164 161 166
246 655 99 159 156 163
247 654 99 151 151 160
247 655 99 139 139 149
247 652 100 167 161 165
247 653 100 157 155 162
247 654 100 141 141 152
247 655 100 141 140 152
248 640 100 108 130 158
248 641 100 152 158 174
249 640 100 107 130 158
249 640 101 113 134 160
249 641 100 139 151 172
249 641 101 140 150 169
248 642 100 160 159 168
248 643 100 165 162 167
249 642 101 147 150 162
249 643 101 163 161 167
250 640 101 108 132 157
250 641 101 145 156 173
251 640 101 102 126 151
251 641 101 127 140 158
250 642 101 161 162 174
250 643 101 167 164 170
251 642 101 145 148 158
251 643 101 158 156 162
248 644 100 140 145 158
248 644 101 145 147 158
248 645 100 142 146 158
248 645 101 146 147 158
249 644 101 161 158 167
249 645 101 164 160 167
248 646 100 161 159 168
248 647 100 163 160 166
249 646 101 165 160 167
249 647 101 164 159 165
250 644 101 160 158 166
250 645 101 149 149 158
251 644 101 146 147 157
251 645 101 137 140 150
250 646 101 153 152 158
250 647 101 159 155 162
251 646 101 149 149 154
251 647 101 156 153 158
252 640 101 98 123 148
252 641 101 113 129 149
252 640 102 99 121 148
252 641 102 109 125 145
253 640 102 97 119 146
253 641 102 100 117 140
252 642 101 127 134 146
252 643 101 152 150 155
252 642 102 132 138 149
252 643 102 152 150 154
253 642 102 129 134 147
253 643 102 149 147 152
254 640 102 79 107 136
254 641 102 68 94 124
255 640 102 91 115 142
255 641 102 70 99 126
254 642 102 105 116 132
254 643 102 133 134 141
255 642 102 97 112 130
255 643 102 136 137 145
252 644 101 156 153 158
252 645 101 154 152 157
252 644 102 155 152 156
253 644 102 147 144 150
253 645 102 139 136 143
252 646 101 156 153 157
252 647 101 153 150 155
252 646 102 148 147 151
252 647 102 150 148 154
253 646 102 136 133 138
253 647 102 144 140 142
254 644 102 137 135 140
254 645 102 129 125 128
255 644 102 138 133 136
255 645 102 120 100 106
254 646 102 122 114 115
254 647 102 126 105 102
255 646 102 106 68 85
255 647 102 111 57 66
248 648 100 164 161 166
248 649 100 164 161 166
249 648 100 160 157 162
249 648 101 157 153 160
249 649 100 146 145 151
249 649 101 135 136 142
248 650 100 152 150 156
248 651 100 143 142 148
249 650 100 134 136 144
249 650 101 141 142 149
249 651 100 145 147 155
249 651 101 148 149 157
250 648 101 154 151 159
250 649 101 150 149 155
251 648 101 152 152 157
251 649 101 151 150 158
250 650 101 156 155 161
250 651 101 155 154 159
251 650 101 142 142 149
251 651 101 134 132 136
248 652 100 161 157 162
248 653 100 160 156 160
249 652 100 158 156 162
249 653 100 160 155 157
248 654 100 152 150 156
248 655 100 150 147 155
249 654 100 156 152 154
249 655 100 151 145 145
250 652 101 152 150 153
250 653 101 151 147 148
251 652 101 129 116 118
251 653 101 119 88 90
250 654 100 146 141 140
250 654 101 134 125 125
250 655 100 132 126 122
250 655 101 115 90 99
251 654 101 110 57 74
251 655 101 114 54 86
252 648 101 146 143 148
252 649 101 127 125 128
252 649 102 109 98 100
253 648 102 133 122 120
253 649 102 111 76 78
252 650 101 105 91 99
252 651 101 112 81 96
253 650 102 115 61 84
253 651 102 109 53 81
254 648 102 121 70 72
254 649 102 126 57 69
255 648 102 119 43 62
255 649 102 116 57 67
254 650 102 126 60 78
254 651 102 122 78 96
255 650 102 108 75 82
255 651 102 93 82 98
252 652 101 116 62 85
252 653 101 115 47 75
253 653 101 102 74 86
253 652 102 98 49 66
253 653 102 99 60 71
252 654 101 103 57 75
252 655 101 93 77 84
253 654 101 87 79 96
253 655 101 86 107 127
254 652 102 93 74 86
254 653 102 87 97 108
255 652 102 86 99 120
255 653 102 91 122 148
254 655 101 95 129 157
254 654 102 96 120 143
254 655 102 91 126 155
255 654 102 88 126 156
255 655 102 85 124 155
