ply
format ascii 1.0
comment Version 2, Copyright 2017, 8i Labs, Inc.
comment frame_to_world_scale 0.179523
comment frame_to_world_translation -45.2095 7.18301 -54.3561
comment width 1023
element vertex 276
property float x
property float y
property float z
property uchar red
property uchar green
property uchar blue
end_header
247 658 223 178 120 71
247 659 223 180 125 69
245 663 223 164 81 39
247 661 221 178 105 38
246 661 223 184 119 59
247 660 222 180 120 63
247 660 223 184 128 69
247 661 222 182 110 44
247 661 223 186 124 65
246 663 221 178 111 38
247 662 221 176 106 46
247 663 220 175 111 49
247 663 221 173 107 41
246 662 222 177 112 43
246 662 223 174 105 49
246 663 222 177 109 46
246 663 223 169 95 44
247 662 222 180 113 40
243 668 223 174 108 49
243 669 223 168 94 36
242 671 223 158 94 41
243 670 223 167 93 43
243 671 222 170 93 50
243 671 223 164 86 46
247 665 219 169 107 60
246 667 219 169 94 52
247 666 219 176 117 73
247 667 219 175 110 68
244 664 223 168 91 40
244 665 223 176 107 35
245 664 222 166 89 44
245 664 223 165 84 38
245 665 222 168 86 41
245 665 223 170 90 34
245 666 221 164 78 26
245 667 221 166 80 26
244 666 223 181 118 39
244 667 222 182 116 36
244 667 223 183 122 45
245 666 222 169 87 30
245 666 223 173 99 29
245 667 222 174 100 29
246 664 221 176 107 41
246 665 220 164 94 42
246 665 221 167 91 34
247 664 220 177 109 49
247 665 220 171 103 57
246 664 222 174 101 48
246 666 220 168 99 50
246 666 221 164 85 33
246 667 220 163 86 39
245 670 219 172 97 43
245 671 219 170 98 40
246 668 219 171 91 62
246 669 219 164 81 47
247 668 218 164 89 57
247 668 219 171 97 64
247 669 218 156 75 40
246 671 217 148 68 47
247 670 217 156 78 47
247 671 217 148 70 42
246 670 218 159 70 39
246 670 219 163 79 41
246 671 218 159 76 50
246 671 219 163 80 41
247 670 218 153 69 39
244 669 221 185 121 49
245 668 220 165 86 33
245 668 221 173 100 33
245 669 220 169 96 39
245 669 221 178 112 42
244 668 222 186 119 43
244 668 223 183 116 53
244 669 222 183 117 46
244 669 223 177 103 42
245 668 222 181 111 37
244 670 221 183 116 51
244 671 220 176 103 43
244 671 221 175 101 48
245 670 220 178 112 45
245 671 220 175 103 41
244 670 222 181 109 53
244 671 222 170 95 49
246 668 220 162 80 42
251 658 219 199 151 98
251 659 219 186 121 63
249 657 221 172 132 92
248 656 223 172 120 73
248 657 223 174 116 75
249 656 222 161 110 68
249 656 223 166 115 78
249 657 222 166 120 79
249 658 221 185 145 104
249 659 221 182 138 95
248 658 222 166 117 70
248 658 223 172 115 66
248 659 222 163 115 57
248 659 223 177 124 71
249 658 222 167 127 83
250 656 221 171 124 67
250 657 221 182 138 88
251 656 221 185 140 81
251 657 220 189 138 75
251 657 221 186 140 79
250 656 222 162 112 65
250 658 220 196 153 96
250 658 221 189 148 100
250 659 220 190 140 84
251 658 220 203 155 96
249 661 219 176 119 60
248 663 219 175 117 50
249 662 219 177 126 63
249 663 219 175 123 55
250 660 219 175 100 52
250 661 219 173 109 65
251 660 219 170 84 39
251 661 218 163 93 59
251 661 219 166 99 65
250 662 218 179 133 84
250 662 219 178 130 80
250 663 218 171 120 55
250 663 219 174 126 63
251 662 218 173 120 76
251 663 218 175 118 57
248 660 221 176 123 59
248 661 220 175 116 51
248 661 221 178 114 44
249 660 220 183 127 73
249 660 221 186 139 84
249 661 220 179 122 60
248 660 222 169 113 49
248 661 222 178 111 39
248 662 220 172 111 43
248 663 220 179 119 54
249 662 220 175 123 53
250 660 220 180 117 62
252 657 219 172 108 57
253 656 219 174 95 34
253 657 219 169 89 51
252 658 219 187 131 88
252 659 218 179 93 43
252 659 219 182 110 63
253 658 218 174 95 51
253 658 219 179 108 71
253 659 218 178 96 35
254 656 219 182 109 52
254 657 218 174 95 47
254 657 219 169 82 44
255 656 219 185 126 65
255 657 218 175 107 43
255 657 219 171 93 41
255 658 217 175 119 55
255 659 217 175 116 50
254 658 218 181 109 54
254 659 218 181 112 35
255 658 218 180 120 50
255 659 218 183 123 41
252 656 220 179 115 50
252 656 221 187 138 80
252 657 220 167 101 42
253 656 220 180 103 40
252 660 218 173 80 39
252 661 218 162 92 49
253 660 218 177 91 29
253 661 218 168 97 42
253 662 217 175 106 75
253 663 217 163 76 46
252 662 218 173 116 75
252 663 218 171 106 55
253 662 218 173 110 69
253 663 218 166 94 55
254 661 217 179 114 46
255 660 217 170 111 47
255 661 217 177 120 64
254 660 218 181 113 32
254 661 218 179 109 37
255 660 218 183 123 38
254 662 217 172 98 59
254 663 217 163 71 53
255 662 216 170 94 60
255 662 217 174 108 67
255 663 216 159 65 40
255 663 217 163 81 56
251 671 215 146 111 91
254 667 215 162 70 39
255 666 215 171 80 52
255 667 215 167 65 41
253 668 215 146 74 47
253 669 215 155 100 76
252 670 215 163 122 102
252 671 215 147 105 83
253 670 215 163 115 91
253 671 215 150 98 70
254 668 215 151 67 41
254 669 215 154 83 62
255 668 214 159 87 77
255 668 215 155 68 50
255 669 214 166 106 86
255 669 215 153 82 65
254 670 214 159 95 61
254 670 215 159 99 72
254 671 214 155 94 60
254 671 215 158 99 73
255 670 214 162 92 64
255 671 214 155 70 33
248 664 219 171 107 46
248 665 219 166 112 65
249 664 218 164 111 42
249 664 219 165 112 41
249 665 218 166 118 73
249 665 219 163 114 58
249 667 217 145 93 60
248 666 218 175 129 95
248 666 219 173 123 86
248 667 218 165 106 70
248 667 219 176 124 84
249 666 218 167 125 86
249 667 218 156 107 70
251 665 217 174 126 84
250 664 218 165 118 56
250 665 218 164 123 79
251 664 218 163 109 47
251 665 218 174 134 94
250 666 217 154 112 71
250 667 217 146 96 64
251 666 217 164 121 85
251 667 217 142 100 82
250 666 218 164 124 84
248 669 217 155 83 54
249 668 217 146 89 56
249 669 217 155 98 66
248 668 218 157 84 47
248 669 218 155 79 48
249 668 218 142 75 44
248 670 217 160 88 61
248 671 217 149 77 48
249 670 216 148 99 70
249 670 217 149 91 60
249 671 216 153 101 72
250 668 217 147 100 78
250 669 216 144 98 76
250 669 217 152 104 83
251 668 216 146 104 95
251 668 217 143 101 93
251 669 216 150 101 83
250 670 216 153 108 86
250 671 216 145 107 82
251 670 216 157 114 95
251 671 216 150 115 96
252 664 217 167 93 47
252 665 217 166 100 54
253 664 217 162 72 36
253 665 216 168 93 57
253 665 217 164 87 49
252 664 218 168 104 45
252 666 216 150 110 85
252 666 217 161 114 83
252 667 216 149 106 95
252 667 217 141 106 90
253 666 216 160 97 67
253 666 217 162 108 78
253 667 216 158 95 70
254 664 216 167 86 54
254 664 217 160 71 44
254 665 216 174 103 68
254 665 217 164 82 41
255 664 216 170 93 62
255 665 216 177 107 75
254 666 216 169 83 48
254 667 216 166 72 43
255 666 216 172 89 57
252 668 216 143 96 81
252 669 216 143 99 74
253 668 216 141 76 52
253 669 216 147 101 79
252 670 216 165 126 106
