ply
format ascii 1.0
comment Version 2, Copyright 2017, 8i Labs, Inc.
comment frame_to_world_scale 0.179523
comment frame_to_world_translation -45.2095 7.18301 -54.3561
comment width 1023
element vertex 337
property float x
property float y
property float z
property uchar red
property uchar green
property uchar blue
end_header
242 880 115 175 129 88
243 880 115 185 134 94
243 881 115 177 128 88
240 880 116 160 114 77
240 881 116 151 108 73
241 880 116 163 118 79
241 881 116 154 110 74
240 882 116 142 97 63
240 882 117 138 93 61
240 883 117 136 98 63
241 882 116 149 104 72
241 882 117 141 94 64
241 883 117 131 91 56
242 880 116 168 123 84
242 881 116 160 116 78
243 880 116 176 129 89
243 881 116 167 122 82
242 882 116 156 111 76
242 882 117 148 103 71
242 883 117 138 97 65
243 882 116 161 117 79
243 882 117 154 112 75
243 883 117 145 103 71
243 887 113 110 80 53
243 887 114 119 82 55
243 887 115 114 77 56
240 884 117 135 98 64
240 885 116 141 102 70
240 885 117 136 99 69
241 884 117 130 93 62
241 885 117 132 95 65
240 886 116 135 97 66
240 887 116 130 95 65
241 886 116 128 92 59
241 886 117 126 90 60
241 887 116 124 90 58
242 884 117 134 95 63
242 885 117 130 93 62
243 884 117 135 96 66
243 885 117 131 93 62
243 884 118 137 97 66
243 885 118 133 95 66
242 886 116 121 84 57
242 886 117 129 91 65
242 887 116 119 83 57
243 886 116 122 85 61
243 886 117 126 88 59
243 887 116 120 81 60
244 880 115 190 135 96
244 881 115 181 128 90
245 880 115 196 136 95
245 881 115 189 131 91
244 883 112 143 104 80
245 883 112 145 106 79
245 882 115 180 126 87
246 880 114 207 141 97
246 880 115 200 137 95
246 881 115 192 130 88
247 880 115 203 137 91
247 881 115 191 130 88
246 882 112 147 106 75
246 883 112 144 105 76
246 883 113 143 103 75
247 882 112 160 118 84
247 882 113 154 113 80
247 883 113 145 105 76
246 882 115 181 122 82
247 882 115 183 124 84
244 882 116 168 122 85
244 883 116 166 122 85
244 883 117 154 112 80
245 882 116 175 125 87
245 883 116 162 116 80
245 883 117 155 110 77
246 882 116 173 119 82
246 883 116 160 112 78
247 882 116 172 119 83
247 883 116 158 111 79
245 884 113 137 100 77
245 885 113 123 86 67
245 885 114 127 90 69
244 886 113 120 85 60
244 887 112 114 85 61
245 886 112 119 85 62
245 886 113 122 86 66
244 886 114 121 81 62
244 887 115 115 81 57
245 887 115 119 84 54
246 885 113 124 89 73
246 884 114 143 100 74
246 884 115 146 102 72
246 885 114 137 98 79
247 884 115 154 108 78
246 886 115 128 90 67
246 887 114 121 84 55
246 887 115 123 86 60
247 886 115 130 93 69
247 887 114 121 86 64
247 887 115 125 88 65
244 884 117 142 99 68
244 885 117 135 94 65
245 884 117 145 101 68
245 885 117 137 95 65
244 885 118 135 94 66
244 886 116 130 88 62
244 886 117 130 89 61
244 887 116 121 83 57
245 886 116 128 89 64
245 886 117 130 91 62
245 887 116 124 87 61
246 884 116 150 106 75
246 885 116 136 97 69
247 884 116 149 105 74
247 885 116 138 99 70
246 886 116 130 91 67
240 888 115 126 92 64
240 889 115 125 89 62
241 888 115 120 87 56
241 889 115 118 85 56
240 890 115 116 84 59
240 891 115 111 80 56
241 890 114 108 79 56
241 890 115 111 80 54
241 891 114 104 76 54
241 891 115 105 77 55
243 888 113 112 82 52
243 889 113 102 76 46
242 888 115 117 83 58
242 889 114 113 81 58
242 889 115 117 84 59
243 888 114 106 77 51
243 888 115 113 79 55
243 889 114 108 79 52
242 891 113 103 77 47
243 890 113 101 74 49
243 891 112 101 76 56
243 891 113 101 75 52
242 890 114 108 79 50
242 891 114 105 78 47
243 890 114 105 78 52
240 888 116 121 89 59
241 888 116 120 88 57
242 888 116 117 83 56
241 893 113 102 82 65
240 892 114 108 79 56
240 892 115 110 80 56
240 893 114 106 80 59
241 892 114 104 78 57
241 893 114 104 80 62
240 894 113 103 81 62
240 895 113 102 80 62
241 894 112 100 79 62
241 894 113 101 80 63
241 895 112 98 76 58
241 895 113 101 80 63
240 894 114 104 82 64
242 892 113 103 77 52
242 893 112 99 77 59
242 893 113 102 78 52
243 892 112 99 74 54
243 893 112 98 74 56
242 894 112 99 78 59
242 895 112 97 76 58
244 889 112 107 80 53
244 889 113 107 79 51
245 888 113 112 82 54
245 889 112 110 82 53
245 889 113 109 80 51
244 888 114 112 81 53
244 888 115 114 78 56
244 889 114 109 81 53
245 888 114 116 81 50
244 890 112 102 77 53
244 890 113 102 77 49
244 891 112 102 77 56
245 890 112 106 80 55
246 888 112 114 84 61
246 888 113 116 84 57
246 889 112 111 83 57
247 888 112 114 81 61
247 888 113 118 83 60
246 888 114 120 83 53
247 888 114 119 85 61
248 880 112 171 124 88
248 881 112 167 121 86
249 880 112 172 125 89
248 880 115 202 136 92
248 881 115 187 130 89
249 880 115 194 135 95
249 881 115 180 132 94
248 882 113 153 113 80
248 882 115 179 126 86
249 882 114 152 110 75
249 883 114 150 108 79
250 880 115 181 132 96
250 881 115 176 131 96
251 880 115 175 125 89
251 881 115 165 121 82
251 883 115 154 112 77
248 882 116 171 122 84
248 883 116 161 116 83
249 882 116 173 129 92
249 883 116 164 120 89
250 881 116 173 128 94
251 881 116 165 122 85
250 882 116 167 121 89
250 883 116 160 117 88
251 882 116 160 117 82
251 883 116 153 110 77
248 884 114 149 106 77
248 885 115 145 103 73
249 885 115 143 100 73
248 886 115 137 96 70
248 887 114 124 90 68
248 887 115 128 91 70
249 886 115 133 91 64
249 887 114 127 87 68
249 887 115 127 89 68
250 885 115 139 98 70
251 884 115 144 103 72
251 885 115 141 101 71
251 886 112 126 92 68
250 886 115 133 93 66
250 887 114 125 85 64
250 887 115 125 86 64
251 886 115 135 95 70
251 887 115 131 93 71
248 884 116 153 108 77
248 885 116 149 105 76
249 884 116 157 113 83
249 885 116 148 105 77
250 884 116 151 107 77
250 885 116 144 102 73
251 884 116 148 105 73
252 880 115 166 119 84
252 883 115 148 107 74
252 880 116 164 119 86
252 881 116 162 116 80
253 880 116 158 115 82
253 881 116 157 114 82
252 882 116 153 113 81
252 883 116 148 108 76
253 882 116 150 111 79
253 883 116 147 109 78
254 880 116 156 118 86
254 881 116 151 112 79
254 881 117 150 113 83
255 880 117 155 117 86
255 881 117 150 113 84
254 882 116 143 105 73
254 882 117 144 108 77
254 883 116 141 104 72
255 882 117 142 105 77
255 883 116 136 99 70
255 883 117 136 100 72
252 884 115 145 104 73
252 885 115 141 99 72
253 884 115 140 102 73
253 885 115 138 100 72
252 887 112 123 91 67
252 887 113 128 95 70
253 887 113 122 88 65
252 886 115 134 96 73
252 887 115 123 88 67
253 886 115 135 97 73
253 887 115 129 91 70
254 884 115 135 98 70
254 885 115 137 98 74
254 886 115 136 97 77
253 884 116 141 103 71
254 884 116 137 99 70
254 885 116 135 98 73
255 884 116 135 98 71
255 884 117 134 98 70
255 885 116 132 96 72
254 886 116 135 96 76
254 887 116 130 93 74
255 886 116 130 95 74
255 887 116 125 91 72
248 888 112 116 83 62
248 888 113 117 83 63
249 888 113 119 84 66
249 889 112 116 84 65
249 889 113 116 84 66
248 888 114 120 86 65
249 888 114 120 86 68
250 889 112 112 85 67
250 889 113 116 85 67
251 889 113 116 87 68
250 888 114 121 86 65
250 888 115 124 87 62
250 889 114 121 88 69
251 888 114 124 89 69
251 888 115 126 90 68
251 889 114 121 89 69
250 890 112 111 85 66
250 890 113 110 84 67
251 890 112 113 86 64
251 890 113 115 87 65
252 889 113 116 88 65
253 888 112 119 87 62
252 888 115 123 89 69
252 889 114 120 88 66
253 888 115 122 89 69
253 889 114 120 89 66
253 889 115 120 89 68
252 890 112 113 84 60
252 890 113 114 87 65
252 891 112 113 85 61
253 890 113 116 90 66
253 891 112 111 85 62
253 891 113 113 87 64
253 890 114 118 89 68
254 888 112 118 91 66
254 888 113 118 89 66
254 888 114 122 90 69
254 888 115 121 90 70
254 889 115 118 89 67
255 889 115 117 89 69
254 891 112 108 84 61
254 891 113 112 88 65
255 891 113 109 87 67
254 890 114 116 89 67
254 890 115 112 86 63
254 891 114 113 89 67
255 890 115 115 89 70
255 891 114 110 88 69
255 891 115 112 88 68
254 888 116 124 90 70
255 888 116 122 92 70
255 889 116 118 90 69
255 890 116 113 88 69
253 892 112 109 83 61
254 892 112 106 84 64
255 892 112 104 82 63
255 892 113 103 83 64
255 893 112 101 81 63
