ply
format ascii 1.0
comment Version 2, Copyright 2017, 8i Labs, Inc.
comment frame_to_world_scale 0.179523
comment frame_to_world_translation -45.2095 7.18301 -54.3561
comment width 1023
element vertex 327
property float x
property float y
property float z
property uchar red
property uchar green
property uchar blue
end_header
240 832 98 182 131 91
240 833 98 183 130 88
241 832 98 182 131 91
241 833 98 182 130 87
240 834 98 184 130 89
240 835 99 187 134 94
241 834 98 184 131 89
241 835 99 186 133 92
242 832 98 184 132 91
242 833 98 184 131 90
243 832 98 188 134 94
243 833 98 187 132 91
242 834 98 184 131 91
242 834 99 185 131 91
242 835 99 187 133 95
243 834 98 187 133 91
243 834 99 187 133 92
243 835 99 189 133 94
240 836 99 191 137 94
240 837 99 201 143 100
241 836 99 192 138 97
241 837 99 199 142 99
240 838 99 205 147 102
241 838 99 204 145 102
242 836 99 193 138 100
242 837 99 199 141 101
243 836 99 192 135 97
243 837 99 200 139 102
242 838 99 203 142 102
243 838 99 205 142 105
240 839 100 208 149 106
241 839 100 208 148 107
242 839 100 206 144 104
243 838 100 206 144 106
243 839 100 206 144 104
244 832 98 193 138 96
244 833 98 193 137 97
245 832 98 201 142 101
245 833 98 200 141 100
244 834 98 190 135 94
244 834 99 193 137 96
244 835 99 194 137 99
245 834 99 200 141 100
245 835 99 201 142 102
246 832 98 207 144 105
246 833 98 207 144 107
247 832 98 209 145 106
247 833 98 210 145 106
246 834 99 207 144 107
246 835 99 206 144 106
247 834 99 210 146 108
247 835 99 210 146 108
244 836 99 196 137 99
244 837 99 202 140 103
245 836 99 202 142 103
245 837 99 204 142 103
244 838 99 204 142 104
246 836 99 207 144 106
246 837 99 207 144 105
247 836 99 211 147 110
247 837 99 211 147 111
245 837 100 205 143 103
244 838 100 206 144 106
244 839 100 207 145 107
245 838 100 206 143 104
245 839 100 208 145 107
246 837 100 208 144 105
247 837 100 211 145 110
246 838 100 209 143 107
246 839 100 209 143 107
247 838 100 209 141 107
247 839 100 210 142 108
240 840 100 210 150 109
240 841 100 210 148 107
241 840 100 210 149 109
241 841 100 210 146 107
240 842 100 210 146 106
240 842 101 210 147 107
240 843 101 211 147 108
241 842 100 209 143 104
241 843 100 210 145 107
242 840 100 209 147 108
242 841 100 209 146 107
243 840 100 208 146 105
243 841 100 210 148 107
242 842 100 210 145 105
242 843 100 211 147 109
243 842 100 210 148 107
243 843 100 210 147 106
240 844 101 211 147 109
240 845 101 209 143 102
241 844 101 210 147 108
241 845 101 210 145 105
240 846 101 210 145 105
240 847 101 212 149 110
241 846 101 211 147 108
241 847 101 212 148 109
240 847 102 212 149 111
241 847 102 213 149 110
242 844 100 212 149 111
242 844 101 211 149 110
242 845 101 210 146 107
243 844 100 211 148 108
243 844 101 209 146 107
243 845 101 210 147 109
242 846 101 210 145 106
242 847 101 211 146 107
243 846 101 209 145 108
242 847 102 212 148 108
243 847 102 210 147 109
244 840 100 209 147 109
244 841 100 210 149 109
245 840 100 210 147 109
245 841 100 211 149 110
244 842 100 211 149 109
244 843 100 209 148 107
244 843 101 209 147 107
245 842 100 211 150 111
245 842 101 210 149 110
245 843 101 209 147 108
246 840 100 210 144 107
246 841 100 209 144 107
246 841 101 209 145 106
247 840 100 210 143 109
247 840 101 210 143 109
247 841 101 209 144 107
246 842 101 209 146 107
246 843 101 209 145 106
247 842 101 211 147 108
247 843 101 209 146 107
247 843 102 210 146 107
244 844 101 209 147 108
244 845 101 210 147 108
245 844 101 208 146 106
245 845 101 208 145 106
244 846 101 209 146 109
244 846 102 209 146 108
244 847 102 211 148 110
245 846 102 210 147 108
245 847 102 213 151 112
246 844 101 209 146 107
246 845 101 209 145 107
247 844 101 210 146 107
246 845 102 209 145 106
247 844 102 211 146 107
247 845 102 212 148 109
246 846 102 211 148 109
246 847 102 214 151 113
247 846 102 213 149 111
247 846 103 215 151 113
247 847 102 214 151 112
247 847 103 215 153 115
248 832 98 213 148 110
248 833 98 213 147 108
248 833 99 213 148 109
249 832 98 215 151 113
249 833 98 216 150 113
249 833 99 215 150 113
248 834 99 213 148 110
248 835 99 212 147 110
249 834 99 215 150 115
249 835 99 215 149 115
250 832 98 217 154 116
250 832 99 219 157 120
250 833 99 218 154 118
251 832 98 218 156 116
251 832 99 220 158 119
251 833 99 221 157 119
250 834 99 218 152 117
250 835 99 217 151 116
251 834 99 220 155 119
251 835 99 219 153 117
251 835 100 219 153 115
248 836 99 213 148 112
249 836 99 215 149 115
250 836 99 216 150 116
248 837 100 211 144 109
249 837 100 214 147 113
248 838 100 208 139 103
248 839 100 209 140 106
249 838 100 213 144 110
249 839 100 214 145 112
250 836 100 216 151 116
250 837 100 217 151 115
251 836 100 218 153 116
251 837 100 220 155 118
250 838 100 217 149 112
250 839 100 217 149 113
250 839 101 217 149 112
251 838 100 220 154 117
251 838 101 220 154 116
251 839 101 218 152 114
252 832 99 223 162 123
252 833 99 222 160 121
253 832 99 224 166 126
253 833 99 223 163 123
252 834 99 221 157 119
252 835 99 220 155 118
253 834 99 223 160 122
254 832 99 226 164 126
254 833 99 225 165 126
255 832 99 227 163 126
252 835 100 221 157 119
253 834 100 223 161 122
253 835 100 224 161 123
254 832 100 226 164 127
254 833 100 226 165 128
255 832 100 226 162 125
255 833 100 227 163 127
254 834 100 226 163 126
254 835 100 226 161 124
255 834 100 228 161 127
255 835 100 226 154 119
252 836 100 220 155 117
252 837 100 221 156 117
253 836 100 223 159 120
253 837 100 223 159 119
253 837 101 223 160 120
252 838 100 221 155 117
252 838 101 220 154 115
252 839 101 220 154 116
253 838 101 222 157 118
253 839 101 223 156 118
254 836 100 224 158 119
254 836 101 225 159 119
254 837 100 224 161 121
254 837 101 226 162 123
255 836 100 224 152 115
255 836 101 226 156 117
255 837 101 228 164 125
254 838 101 225 160 121
254 839 101 225 159 121
255 838 101 227 163 123
255 839 101 226 162 122
255 839 102 227 164 123
248 840 100 211 142 109
248 840 101 211 143 110
248 841 101 212 146 110
249 840 101 214 146 112
249 841 101 214 148 111
248 842 101 213 148 110
248 843 101 211 147 107
249 842 101 214 148 110
248 843 102 213 149 109
249 842 102 214 150 110
249 843 102 215 152 113
250 840 101 217 149 112
250 841 101 216 149 112
251 840 101 218 153 114
251 841 101 218 152 114
250 841 102 216 150 112
251 841 102 218 152 115
250 842 102 216 150 112
250 843 102 217 153 114
251 842 102 218 151 114
251 843 102 219 153 116
251 843 103 220 154 118
248 844 102 214 150 110
248 845 102 214 150 111
249 844 102 216 153 113
249 845 102 216 153 114
249 845 103 218 156 117
248 846 102 215 151 113
248 846 103 217 154 117
248 847 103 218 155 118
249 846 103 219 157 120
249 847 103 219 157 120
250 844 102 217 153 114
250 844 103 218 154 115
250 845 103 218 156 117
251 844 103 219 155 117
251 845 103 220 157 119
250 846 103 219 158 121
250 847 103 220 158 121
251 846 103 220 158 120
252 840 101 220 152 115
252 841 101 219 152 115
253 840 101 221 153 117
252 841 102 219 151 114
253 840 102 222 154 118
253 841 102 221 153 117
252 842 102 219 152 115
252 843 102 220 153 117
252 843 103 220 154 118
253 842 102 220 153 117
253 842 103 221 155 118
253 843 103 221 155 118
254 840 101 224 157 120
254 840 102 224 158 120
254 841 102 223 156 119
255 840 102 227 162 123
255 841 102 225 160 122
255 841 103 225 161 123
254 842 103 222 157 120
254 843 103 222 156 119
255 842 103 223 159 121
255 843 103 222 158 120
252 844 103 221 155 118
252 845 103 221 157 120
253 844 103 221 156 120
250 847 104 220 157 121
251 846 104 220 157 120
251 847 104 220 157 120
254 843 104 221 157 120
255 842 104 223 160 122
255 843 104 221 158 120
252 845 104 221 157 120
253 844 104 221 157 120
253 845 104 221 157 120
252 846 104 220 157 120
252 847 104 220 156 119
253 846 104 220 156 120
253 846 105 220 155 118
253 847 105 219 153 116
254 844 104 221 157 120
254 845 104 219 156 119
254 845 105 217 155 118
255 844 104 219 158 120
255 844 105 217 157 119
255 845 104 218 156 119
255 845 105 217 156 119
254 846 105 217 154 118
254 847 105 215 152 115
255 846 105 213 152 116
255 847 105 208 149 113
255 846 106 209 149 114
255 847 106 205 146 111
