ply
format ascii 1.0
comment Version 2, Copyright 2017, 8i Labs, Inc.
comment frame_to_world_scale 0.179523
comment frame_to_world_translation -45.2095 7.18301 -54.3561
comment width 1023
element vertex 181
property float x
property float y
property float z
property uchar red
property uchar green
property uchar blue
end_header
257 257 160 73 104 131
257 257 162 71 102 128
257 257 163 71 101 127
257 258 160 74 103 130
257 258 161 70 101 127
257 259 160 72 103 130
257 259 161 70 101 128
257 258 162 72 103 130
257 258 163 74 106 132
257 259 162 73 104 131
257 259 163 77 108 135
258 256 160 68 102 130
258 256 161 65 96 124
258 257 160 72 105 131
258 257 161 68 101 127
258 256 162 66 95 122
258 256 163 70 98 125
258 257 162 67 98 124
258 257 163 67 95 122
257 256 165 72 103 131
257 257 164 72 100 127
257 257 165 74 105 132
257 256 166 74 106 133
257 256 167 74 106 133
257 257 166 75 107 134
257 257 167 75 107 133
257 258 164 76 108 135
257 258 165 75 109 137
257 259 164 79 111 138
257 259 165 78 111 139
257 258 166 75 109 137
257 258 167 76 110 137
257 259 166 77 111 139
257 259 167 76 111 139
258 256 164 73 102 129
258 256 165 75 107 135
257 260 160 73 106 134
257 260 161 71 105 132
257 261 160 75 109 135
257 261 161 74 108 135
257 260 162 71 105 132
257 260 163 75 107 134
257 261 162 71 106 132
257 261 163 70 103 131
256 262 161 79 100 117
256 263 160 79 75 81
256 263 161 79 80 91
257 262 160 81 104 123
257 262 161 79 104 124
256 262 162 74 101 123
256 262 163 74 103 126
256 263 162 76 87 101
256 263 163 75 93 110
257 262 162 73 104 128
256 261 164 69 100 127
256 261 165 65 94 121
257 260 164 76 107 135
257 260 165 75 106 132
257 261 164 68 99 127
257 261 165 65 94 122
257 260 166 76 108 135
257 260 167 75 108 135
257 261 166 65 95 123
257 261 167 67 96 124
256 262 164 74 103 126
256 262 165 72 101 125
256 263 164 75 97 115
256 263 165 73 99 120
256 262 166 65 96 123
256 262 167 65 95 123
256 263 166 67 98 122
256 263 167 70 102 128
257 256 168 75 106 132
257 256 169 76 107 133
257 257 168 72 105 132
257 257 169 72 105 131
257 256 170 75 106 131
257 256 171 73 104 129
257 257 170 72 104 131
257 257 171 73 106 132
257 258 168 75 109 137
257 258 169 73 107 135
257 259 168 75 109 138
257 259 169 75 110 138
257 258 170 72 106 134
257 258 171 73 106 133
257 259 170 76 110 137
257 259 171 73 106 134
257 256 172 71 103 129
257 256 173 72 104 130
257 257 172 75 108 134
257 257 173 76 109 135
257 256 174 74 106 132
257 256 175 74 106 133
257 257 174 76 109 136
257 257 175 76 109 136
257 258 172 75 106 133
257 258 173 76 106 133
257 259 172 68 98 127
257 259 173 67 96 124
256 259 175 70 100 127
257 258 174 77 107 134
257 258 175 77 109 135
257 259 174 70 99 126
257 259 175 72 103 129
257 260 168 76 108 136
257 260 169 77 110 138
257 261 168 72 101 129
257 261 169 75 107 135
256 261 170 73 106 136
256 261 171 71 106 135
257 260 170 77 111 139
257 260 171 76 109 136
257 261 170 75 108 137
257 261 171 72 107 136
256 262 168 73 104 131
256 262 169 77 108 136
256 263 168 75 107 133
256 263 169 77 109 135
257 262 168 71 101 129
257 262 169 75 105 133
256 262 170 74 105 134
256 262 171 72 104 133
256 263 170 75 108 135
256 263 171 73 107 134
256 260 172 72 105 132
256 260 173 73 104 130
256 261 172 70 105 133
256 261 173 70 104 131
257 260 172 72 104 131
257 260 173 69 99 126
256 260 174 67 98 125
256 260 175 65 94 123
256 261 174 70 103 130
256 261 175 73 106 133
257 260 174 66 93 120
256 262 172 69 104 132
256 262 173 68 102 130
256 263 172 71 105 133
256 263 173 70 103 131
256 262 174 71 104 131
256 262 175 77 109 136
256 263 174 73 105 131
256 263 175 78 109 136
256 264 160 89 45 45
256 264 161 87 45 52
256 265 160 96 35 34
256 265 161 92 26 29
256 264 162 85 57 66
256 264 163 81 71 79
256 265 162 92 32 38
256 265 163 94 44 50
256 266 160 98 73 70
256 266 161 90 59 55
256 267 160 119 117 118
256 267 161 99 95 95
256 266 162 89 48 43
256 266 163 92 53 46
256 267 162 85 72 69
256 264 164 80 81 90
256 264 165 73 86 100
256 265 164 92 56 60
256 265 165 83 63 68
256 264 166 72 93 110
256 264 167 76 101 121
256 265 166 81 67 73
256 265 167 77 86 97
256 267 164 89 58 50
256 268 160 132 132 136
256 268 161 119 119 122
256 269 160 136 135 139
256 269 161 130 130 134
256 264 168 78 106 129
256 264 169 78 108 133
256 265 168 78 95 111
256 265 169 80 106 127
256 264 170 76 108 134
256 264 171 74 108 135
256 264 172 74 108 135
256 264 173 73 106 133
256 264 174 72 104 131
