ply
format ascii 1.0
comment Version 2, Copyright 2017, 8i Labs, Inc.
comment frame_to_world_scale 0.179523
comment frame_to_world_translation -45.2095 7.18301 -54.3561
comment width 1023
element vertex 259
property float x
property float y
property float z
property uchar red
property uchar green
property uchar blue
end_header
259 224 275 117 40 58
259 225 275 120 73 81
256 224 277 119 77 65
257 224 277 121 81 72
257 225 277 131 107 96
256 224 278 124 91 75
256 225 278 138 119 104
257 225 278 138 119 107
257 226 277 138 123 113
256 226 278 148 132 116
256 227 278 150 133 117
256 227 279 152 134 117
257 226 278 141 126 113
257 227 278 146 132 118
258 224 276 119 63 63
258 224 277 121 77 72
258 225 276 120 83 78
258 225 277 125 99 91
259 224 276 117 55 63
259 225 276 118 80 83
258 226 277 132 118 109
258 227 277 131 122 115
259 226 276 118 97 97
259 226 277 123 113 107
259 227 276 119 117 116
259 227 277 126 122 120
258 227 278 137 126 117
256 228 279 156 136 118
256 229 279 154 132 108
257 228 278 149 135 123
257 228 279 153 137 122
257 229 279 150 132 113
256 230 279 150 126 96
257 230 279 143 119 90
257 231 279 139 102 62
259 228 277 127 123 123
259 229 277 125 121 121
258 228 278 140 130 122
258 229 278 142 130 119
259 229 278 137 129 124
259 230 277 126 119 114
259 231 277 119 108 97
258 230 278 135 119 103
258 230 279 136 116 95
258 231 278 132 108 84
258 231 279 135 96 61
259 230 278 134 122 112
259 231 278 128 105 82
261 224 273 114 29 60
261 225 273 118 36 64
260 224 274 118 30 61
260 224 275 120 35 63
260 225 274 116 43 65
260 225 275 119 63 76
261 224 274 117 29 60
261 225 274 116 38 65
260 226 275 114 79 87
260 227 275 115 102 104
261 226 274 112 60 77
261 226 275 112 78 88
261 227 274 113 93 97
261 227 275 115 108 109
262 224 272 108 40 63
262 224 273 114 31 59
262 225 272 121 29 63
262 225 273 119 36 63
263 224 272 110 27 61
263 225 272 120 21 61
262 226 272 118 42 65
262 226 273 115 50 68
262 227 273 113 83 87
263 226 272 122 30 64
263 227 272 117 74 80
263 227 273 116 102 97
262 227 274 113 98 100
260 226 276 117 94 97
260 227 276 117 115 116
261 228 275 116 119 123
261 229 275 112 117 124
261 230 275 113 118 127
262 228 273 114 113 113
263 228 272 127 118 112
263 228 273 121 116 113
263 229 272 128 126 125
263 229 273 115 116 120
262 228 274 113 115 118
262 229 274 108 114 121
262 229 275 112 117 125
263 230 272 130 129 131
263 230 273 122 123 128
263 231 272 132 131 136
263 231 273 127 128 134
262 230 274 111 116 125
262 230 275 109 117 127
262 231 274 114 119 127
262 231 275 112 118 127
263 231 274 119 122 129
260 228 276 117 119 123
260 229 276 115 116 121
260 229 277 118 117 119
261 229 276 115 118 123
260 230 276 118 117 120
260 230 277 119 116 116
260 231 276 116 113 115
260 231 277 114 107 104
261 230 276 116 118 124
261 231 276 115 116 121
256 229 280 153 130 103
256 230 280 150 124 93
256 231 280 145 109 65
257 231 280 141 100 56
257 232 279 140 85 41
258 232 279 138 78 29
258 233 279 139 70 11
259 232 278 128 92 66
259 232 279 133 80 37
259 233 278 129 85 57
259 233 279 137 74 25
258 234 279 142 72 9
259 234 278 132 79 37
259 234 279 138 71 15
259 235 279 139 72 17
259 236 279 143 72 17
259 237 279 142 73 12
263 232 273 122 125 132
263 233 273 114 120 130
262 232 275 112 116 123
262 233 275 108 111 117
263 232 274 116 120 129
263 233 274 111 118 128
263 233 275 106 112 120
262 234 275 110 112 117
263 234 274 109 116 126
263 234 275 111 115 123
263 235 274 115 121 131
263 235 275 118 120 128
260 232 277 118 102 98
260 233 277 124 105 99
261 232 276 112 108 112
261 233 276 116 110 114
261 233 277 121 107 106
260 233 278 126 97 84
261 234 276 122 111 114
261 234 277 121 101 94
261 235 277 122 99 89
260 234 278 128 89 63
260 235 278 130 81 46
262 232 276 112 113 118
262 233 276 111 111 115
262 234 276 118 115 119
262 235 276 120 114 117
263 236 275 115 118 127
263 237 275 107 110 120
261 236 277 124 89 74
260 236 278 132 75 35
260 236 279 139 72 22
260 237 279 140 73 14
261 236 278 126 80 53
261 237 278 133 77 38
260 238 279 143 74 11
260 239 279 143 74 7
261 238 278 136 74 23
261 238 279 140 75 18
261 239 278 135 72 19
261 239 279 142 74 11
262 236 276 112 100 103
262 236 277 119 94 88
262 237 276 108 90 90
262 237 277 119 84 71
263 236 276 114 110 117
263 237 276 108 98 103
262 238 277 123 85 67
262 239 277 130 85 59
263 238 276 110 96 96
263 238 277 122 91 78
263 239 276 121 99 93
263 239 277 130 92 71
262 238 278 131 76 38
262 239 278 134 78 35
256 232 280 139 86 25
256 233 280 140 72 7
256 233 281 141 67 2
257 232 280 140 83 30
257 233 280 141 71 6
256 234 281 142 64 2
256 235 281 144 64 1
257 234 280 143 69 2
257 235 280 144 70 2
257 235 281 144 67 2
258 233 280 141 70 7
258 234 280 143 72 5
258 235 280 144 74 3
259 235 280 143 72 3
256 236 281 146 66 2
257 236 281 146 67 2
257 237 281 147 65 1
256 236 282 146 65 2
256 237 282 148 65 2
257 237 282 148 66 1
257 238 281 148 68 1
256 238 282 149 67 2
256 239 282 149 67 2
256 239 283 148 69 2
257 238 282 149 68 1
257 239 282 149 68 2
258 236 280 144 72 2
258 236 281 144 66 1
258 237 281 145 68 1
259 236 280 144 73 8
259 237 280 145 74 3
258 238 281 147 69 1
258 239 281 147 66 1
259 238 280 146 75 2
259 238 281 146 73 2
259 239 280 146 73 2
259 239 281 146 70 2
258 239 282 147 66 2
260 238 280 147 73 5
260 239 280 146 73 5
264 229 272 135 130 128
264 230 272 133 131 132
264 231 272 133 132 136
264 232 272 130 131 136
264 232 273 120 124 132
264 233 272 123 125 132
264 233 273 116 122 131
265 233 272 124 125 131
264 234 272 114 119 127
264 234 273 113 119 129
264 235 272 115 119 128
264 235 273 117 121 131
265 234 272 116 120 128
265 235 272 112 119 129
264 235 274 115 121 130
264 236 273 116 122 131
265 236 272 113 120 132
265 236 273 116 122 131
265 237 272 111 118 129
265 237 273 106 113 123
264 236 274 116 122 131
264 236 275 111 117 127
264 237 274 108 115 126
264 237 275 104 109 120
265 237 274 103 111 122
265 238 272 109 115 125
265 238 273 108 114 124
265 239 273 112 117 127
264 238 274 106 112 123
264 238 275 105 107 116
264 239 275 108 105 112
265 238 274 108 113 123
265 239 274 107 111 122
265 239 275 106 106 115
266 237 272 114 121 133
266 238 272 111 117 127
266 239 272 114 120 130
266 239 273 118 123 132
264 238 276 106 99 105
264 239 276 113 100 101
