ply
format ascii 1.0
comment Version 2, Copyright 2017, 8i Labs, Inc.
comment frame_to_world_scale 0.179523
comment frame_to_world_translation -45.2095 7.18301 -54.3561
comment width 1023
element vertex 152
property float x
property float y
property float z
property uchar red
property uchar green
property uchar blue
end_header
256 240 41 140 142 152
256 240 42 131 136 148
256 240 43 119 125 140
256 241 42 123 130 142
256 241 43 117 121 132
257 240 42 125 130 144
257 240 43 117 121 133
257 241 43 116 117 127
256 242 43 122 115 121
256 243 43 124 107 111
257 241 44 121 108 105
256 242 44 122 106 106
256 243 44 123 96 94
257 242 44 124 100 92
257 243 44 127 84 68
258 240 44 119 109 106
258 240 45 127 102 90
258 241 44 125 98 87
258 241 45 130 90 72
259 240 45 129 95 71
259 241 45 136 79 56
259 241 46 140 65 29
258 242 44 129 92 77
258 242 45 131 82 59
258 243 45 136 73 38
259 242 45 141 73 41
259 243 45 143 69 24
259 242 46 144 66 19
259 243 46 147 67 8
256 244 44 126 86 80
256 245 44 136 85 70
257 244 44 138 77 56
257 245 44 146 78 50
256 246 44 141 83 61
256 247 44 142 76 44
257 246 44 146 76 37
257 246 45 147 67 24
257 247 44 147 71 26
257 247 45 149 66 7
258 244 45 144 69 23
258 245 45 149 65 11
259 244 45 151 66 3
259 245 45 151 64 6
259 244 46 148 66 6
259 245 46 152 65 9
258 246 45 149 62 5
258 247 45 148 64 3
259 246 45 152 66 11
259 246 46 150 67 8
259 247 46 147 64 3
260 240 46 136 85 47
260 241 46 140 69 27
261 240 47 141 79 37
261 241 47 142 63 3
260 242 46 146 61 4
260 243 46 149 64 3
261 242 47 146 61 3
261 243 46 149 61 4
261 243 47 149 64 4
262 240 47 141 82 40
262 241 47 140 65 4
263 240 47 140 79 37
262 242 47 141 59 4
262 243 47 146 61 4
263 242 47 139 59 4
263 243 47 140 57 4
260 244 46 149 62 5
260 245 46 150 66 10
261 244 46 152 62 8
261 244 47 154 65 4
261 245 46 154 67 8
261 245 47 156 63 4
260 246 46 151 68 9
260 247 46 149 61 5
261 246 46 153 66 9
261 246 47 158 64 3
261 247 46 152 57 3
261 247 47 155 64 12
262 244 47 153 60 3
262 245 47 158 62 4
262 246 47 159 64 4
262 247 47 159 62 5
263 246 47 159 66 4
263 247 47 160 62 4
256 248 44 138 69 23
256 248 45 140 67 16
256 249 44 133 74 28
256 249 45 136 74 27
257 248 45 143 65 8
257 249 45 139 69 7
256 250 44 136 84 51
256 250 45 138 81 48
256 251 44 135 90 60
256 251 45 140 96 67
257 250 45 142 75 36
257 251 45 145 90 54
257 251 46 146 96 61
258 248 45 145 64 3
258 249 45 143 64 3
258 248 46 146 62 2
258 249 46 145 68 3
259 248 46 148 58 10
259 249 46 153 65 11
258 250 45 148 73 16
258 251 45 149 74 38
258 250 46 149 74 22
258 251 46 148 88 52
259 250 46 154 74 17
259 251 46 151 83 44
259 251 47 149 88 54
256 252 45 142 109 89
256 253 45 136 110 96
257 252 45 146 111 84
257 252 46 147 110 82
257 253 46 135 107 91
256 254 45 133 113 104
256 255 45 132 123 119
256 254 46 132 111 100
256 255 46 136 124 119
257 254 46 134 111 99
257 255 46 138 123 115
258 252 46 149 110 83
258 253 46 141 110 90
258 253 47 137 108 90
259 252 46 151 106 76
259 252 47 151 104 70
259 253 47 147 114 93
258 254 46 135 111 99
258 254 47 137 112 100
258 255 47 140 124 113
259 254 47 140 115 103
259 255 47 136 120 110
260 248 46 153 57 11
260 248 47 155 54 8
260 249 46 157 59 11
260 249 47 161 61 6
261 248 47 158 59 10
261 249 47 163 62 7
260 250 46 158 64 17
260 250 47 159 69 6
260 251 46 153 69 17
260 251 47 156 84 40
261 250 47 164 66 14
261 251 47 161 78 31
262 248 47 161 61 4
262 249 47 166 64 6
263 248 47 163 63 4
262 250 47 166 67 14
260 252 47 151 98 64
260 253 47 152 119 96
261 252 47 159 95 59
260 254 47 144 117 101
