ply
format ascii 1.0
comment Version 2, Copyright 2017, 8i Labs, Inc.
comment frame_to_world_scale 0.179523
comment frame_to_world_translation -45.2095 7.18301 -54.3561
comment width 1023
element vertex 358
property float x
property float y
property float z
property uchar red
property uchar green
property uchar blue
end_header
256 18 143 155 140 134
256 19 142 162 145 140
256 19 143 158 143 137
257 19 143 154 138 135
258 19 143 149 132 129
256 23 139 162 143 139
256 21 141 166 148 144
256 20 142 163 146 141
256 21 142 164 147 142
257 20 142 161 143 139
257 20 143 158 141 139
257 21 142 162 145 142
256 22 140 166 148 143
256 22 141 166 149 144
256 23 140 165 147 143
257 22 140 168 151 146
257 22 141 166 148 145
257 23 140 169 151 147
258 20 143 150 132 129
258 21 142 161 143 142
258 21 143 154 135 133
259 21 143 146 125 120
258 22 141 166 148 146
258 23 140 173 155 150
258 23 141 170 151 147
259 23 141 164 144 140
258 22 142 161 143 141
259 22 142 156 137 133
259 22 143 148 128 123
259 23 142 158 139 134
260 23 141 159 138 133
260 22 142 150 129 123
260 22 143 147 123 114
260 23 142 152 131 124
260 23 143 148 124 116
261 22 143 143 114 100
261 23 142 147 123 116
261 23 143 143 115 101
262 23 142 138 109 94
262 23 143 144 113 94
263 23 143 151 116 97
256 27 135 112 87 83
257 27 135 119 95 90
256 31 130 179 158 153
256 31 131 166 146 140
257 31 130 175 155 151
257 31 131 162 140 136
258 31 129 178 154 152
259 31 129 174 150 150
258 30 131 144 121 121
258 31 130 173 150 147
258 31 131 156 133 132
259 30 131 139 119 119
259 31 130 160 135 137
259 31 131 146 123 124
256 29 133 121 94 94
257 29 133 114 94 96
256 28 134 98 76 72
256 28 135 101 81 78
256 29 134 96 76 70
257 28 134 97 79 78
257 28 135 106 85 81
257 29 134 99 81 83
256 30 132 146 118 121
256 30 133 136 107 115
256 31 132 151 126 123
257 30 132 139 114 115
257 30 133 131 108 110
258 29 133 113 96 97
259 29 133 129 115 117
258 28 134 121 103 102
258 28 135 130 111 106
258 29 134 117 101 103
259 28 134 150 134 134
259 28 135 160 144 140
259 29 134 136 122 124
258 30 132 127 106 109
258 30 133 117 99 101
259 30 132 139 123 121
259 30 133 124 108 110
260 31 129 164 141 142
261 31 129 149 127 127
260 30 131 148 131 125
260 31 130 142 121 121
260 31 131 141 124 120
261 30 131 150 135 128
261 31 130 143 125 120
261 31 131 152 134 126
262 31 129 140 116 116
263 31 129 157 134 137
262 30 131 149 135 133
262 31 130 146 125 122
262 31 131 153 138 136
263 30 131 138 126 132
263 31 130 152 134 134
263 31 131 142 127 131
260 29 133 142 132 133
261 29 133 150 140 140
260 28 134 163 149 147
260 28 135 175 161 157
260 29 134 153 140 140
261 28 134 171 157 153
261 28 135 180 164 160
261 29 134 162 149 147
260 30 132 146 133 131
261 30 132 141 131 130
262 29 132 142 133 133
262 29 133 160 148 146
263 29 133 169 153 152
262 28 134 179 162 158
262 28 135 182 162 160
262 29 134 174 159 155
263 28 134 182 161 161
263 28 135 184 160 162
263 29 134 180 160 159
262 30 132 141 132 133
263 30 132 147 135 138
256 25 137 153 125 122
256 24 138 152 131 127
256 24 139 160 141 138
256 25 138 152 127 123
257 24 139 168 150 146
257 25 138 164 143 142
257 25 139 169 149 148
256 26 136 136 108 110
256 26 137 149 120 120
256 27 136 120 92 92
257 26 136 144 120 121
257 26 137 154 130 132
257 27 136 129 104 103
258 24 139 172 154 150
258 25 138 180 162 162
258 25 139 176 158 157
259 25 138 181 165 163
259 25 139 179 162 158
258 26 136 152 128 124
258 26 137 168 148 148
258 27 136 144 122 118
259 26 137 182 164 161
259 27 136 174 155 151
258 26 138 180 162 162
259 26 138 184 167 163
258 24 140 174 155 151
259 24 140 176 155 152
259 24 141 172 150 146
259 25 140 179 158 154
260 25 139 180 162 155
261 25 139 179 159 153
260 26 137 185 166 164
260 27 136 186 170 165
260 27 137 184 166 163
261 26 137 183 161 159
261 27 136 183 164 161
261 27 137 183 161 160
260 26 138 182 165 161
260 26 139 180 162 156
261 26 138 182 161 159
261 26 139 181 160 156
262 26 137 183 159 158
262 27 136 183 159 160
262 27 137 183 158 159
263 27 136 185 157 161
263 27 137 184 157 158
262 26 138 182 158 155
262 26 139 178 154 151
263 26 138 179 153 151
263 26 139 169 141 139
260 24 141 166 143 140
260 25 140 177 155 152
261 24 141 156 132 128
261 25 140 175 152 148
261 25 141 166 140 139
261 24 142 144 118 110
262 24 141 145 117 112
262 25 140 165 138 135
262 25 141 147 116 114
263 24 141 138 104 93
263 25 140 148 116 111
263 25 141 137 102 93
262 24 142 138 109 95
263 24 142 140 108 90
263 24 143 147 114 94
261 28 136 181 163 160
262 28 136 183 161 161
263 28 136 185 159 162
264 23 143 149 111 93
271 23 138 123 82 59
271 23 139 134 96 78
270 23 141 130 93 74
271 23 140 142 108 91
271 23 141 136 99 83
270 23 142 118 77 56
270 23 143 111 72 53
271 23 142 115 72 53
271 23 143 107 67 45
264 31 129 170 150 155
265 31 129 144 124 132
264 30 131 135 123 129
264 31 130 144 132 137
264 31 131 129 117 124
265 30 131 135 123 126
265 31 130 119 109 116
265 31 131 120 108 118
266 31 129 118 102 106
267 31 129 118 106 103
266 31 130 110 98 103
266 31 131 134 120 125
267 30 131 158 144 142
267 31 130 121 110 110
267 31 131 144 131 131
264 29 133 177 158 157
265 29 133 180 161 160
264 28 135 184 160 162
264 29 134 182 160 161
265 28 135 184 161 161
265 29 134 183 162 162
264 30 132 155 142 143
265 30 132 161 147 146
266 29 133 183 162 162
267 29 133 184 161 161
266 28 135 185 161 160
266 29 134 184 162 161
267 28 134 186 158 158
267 28 135 184 154 153
267 29 134 186 161 161
266 30 132 167 152 150
267 30 132 174 156 155
269 27 135 122 78 74
271 27 133 121 88 78
270 26 135 92 57 54
270 27 134 113 73 68
270 27 135 100 61 54
271 26 134 110 90 74
271 26 135 116 95 76
271 27 134 109 78 67
271 27 135 101 75 63
268 31 129 126 117 117
269 31 128 131 125 125
269 31 129 142 134 135
268 30 131 171 154 153
268 31 130 146 134 135
268 31 131 163 148 147
269 30 131 179 160 159
269 31 130 166 153 152
271 29 131 182 156 151
270 31 128 154 145 142
270 31 129 166 155 151
271 30 129 183 161 159
271 31 128 173 159 154
271 31 129 180 162 158
270 30 130 181 163 159
270 30 131 183 162 159
270 31 130 176 160 157
271 30 130 183 160 157
271 30 131 184 160 156
268 29 132 183 161 159
268 29 133 185 160 159
269 28 133 181 152 149
269 29 132 185 162 159
269 29 133 184 158 155
268 28 134 182 151 150
268 28 135 167 131 129
268 29 134 185 157 156
269 28 134 171 137 134
269 28 135 154 115 113
268 30 132 180 160 159
269 30 132 183 162 160
270 28 133 173 142 138
270 29 132 183 159 155
270 29 133 182 153 150
271 28 132 157 126 120
271 28 133 147 113 107
271 29 132 178 150 145
270 28 134 148 112 107
270 30 132 184 162 159
265 25 139 119 75 57
264 27 136 186 157 160
264 27 137 182 152 153
265 27 137 174 143 142
264 26 138 168 139 136
264 26 139 148 114 108
265 26 138 140 104 95
265 26 139 123 81 67
266 25 139 115 75 53
267 25 138 102 68 47
267 25 139 126 95 76
266 26 137 134 95 90
266 27 136 177 145 144
266 27 137 159 124 122
267 26 137 95 48 40
267 27 136 151 112 113
267 27 137 144 105 104
266 26 138 111 67 50
267 26 138 92 47 28
264 24 141 145 110 97
264 25 140 131 91 79
264 25 141 139 102 89
265 24 141 148 113 97
265 25 140 133 95 80
265 25 141 145 111 96
264 24 142 147 111 95
264 24 143 149 111 94
265 24 142 149 110 95
265 24 143 146 106 89
266 24 141 147 110 92
266 25 140 137 104 86
266 25 141 145 112 95
267 24 140 144 112 93
267 24 141 144 107 87
267 25 140 141 110 92
266 24 142 145 102 83
266 24 143 139 95 77
267 24 142 140 97 80
267 24 143 130 81 66
264 28 136 185 159 161
265 28 136 186 158 160
266 28 136 184 155 155
267 28 136 174 139 140
268 25 137 82 51 45
269 25 137 85 50 49
268 24 139 135 106 91
268 25 138 104 76 64
268 25 139 126 99 84
269 24 138 119 85 71
269 24 139 132 102 85
269 25 138 107 74 67
268 26 136 73 28 29
268 26 137 76 39 35
268 27 136 123 77 76
269 26 136 76 40 39
269 26 137 75 44 44
269 27 136 97 45 45
270 24 137 100 53 48
270 25 136 102 72 62
270 25 137 94 55 50
271 24 136 130 99 78
271 24 137 120 83 64
271 25 136 119 92 72
271 25 137 109 72 60
270 24 138 109 65 57
270 24 139 131 95 81
271 24 138 117 74 58
271 24 139 127 86 72
270 26 136 94 67 61
271 26 136 110 86 71
268 24 140 142 113 94
268 24 141 144 109 90
269 24 140 144 114 95
269 24 141 142 107 89
268 24 142 136 93 79
268 24 143 125 77 66
269 24 142 129 87 72
269 24 143 116 72 58
270 24 140 144 113 95
270 24 141 140 105 87
271 24 140 141 107 90
270 24 142 123 83 65
270 24 143 112 69 51
