ply
format ascii 1.0
comment Version 2, Copyright 2017, 8i Labs, Inc.
comment frame_to_world_scale 0.179523
comment frame_to_world_translation -45.2095 7.18301 -54.3561
comment width 1023
element vertex 87
property float x
property float y
property float z
property uchar red
property uchar green
property uchar blue
end_header
256 272 47 124 129 139
256 273 47 127 130 139
256 274 47 121 125 132
256 275 47 115 119 126
256 276 47 110 115 122
256 277 47 111 115 123
257 276 47 99 108 119
257 277 47 103 111 121
256 278 46 119 121 127
256 278 47 119 122 130
256 279 46 121 123 127
256 279 47 121 124 130
257 278 47 115 121 129
257 279 47 123 126 133
258 278 47 116 120 127
256 281 45 126 127 130
256 280 46 123 125 130
256 281 46 131 131 134
257 280 46 124 126 131
257 280 47 123 125 131
257 281 46 125 125 129
256 282 45 125 124 125
256 283 45 107 104 106
257 283 45 111 113 120
257 282 46 118 119 124
257 283 46 113 116 122
258 280 47 115 119 126
258 281 46 120 122 127
258 281 47 121 123 127
259 281 47 126 126 130
258 282 46 118 120 125
258 282 47 120 122 127
258 283 46 111 116 125
259 282 47 121 123 129
259 283 46 115 121 130
259 283 47 115 120 129
256 287 43 61 92 117
256 284 44 89 78 78
256 284 45 93 84 86
256 285 44 78 72 70
257 284 45 96 96 102
257 285 45 85 77 75
256 286 44 70 81 93
256 287 44 60 89 112
257 286 44 58 69 78
257 286 45 71 62 60
257 287 44 74 91 107
258 285 45 96 84 83
258 284 46 107 112 120
258 285 46 104 97 95
259 284 46 116 120 126
259 284 47 122 126 134
259 285 46 101 92 92
258 286 45 75 62 61
258 287 44 86 94 104
258 287 45 73 81 87
259 286 45 79 69 76
259 287 45 77 91 106
259 286 46 93 80 86
260 282 47 121 125 133
260 283 47 122 126 134
261 283 47 119 124 132
260 284 47 119 124 133
260 285 46 90 96 104
260 285 47 95 100 108
261 284 47 104 109 115
261 285 47 92 96 102
260 287 45 83 95 113
260 286 46 86 92 100
260 287 46 81 91 106
261 286 46 82 89 99
261 286 47 88 94 102
261 287 46 82 96 113
262 284 47 104 109 117
262 285 47 95 98 106
263 285 47 92 96 103
262 286 46 75 84 95
262 286 47 86 92 100
262 287 46 79 91 107
262 287 47 81 91 102
263 286 47 81 86 94
263 287 46 78 89 104
263 287 47 78 87 100
264 285 47 86 91 100
264 286 47 76 80 90
264 287 47 74 81 98
265 287 47 82 87 109
