ply
format ascii 1.0
comment Version 2, Copyright 2017, 8i Labs, Inc.
comment frame_to_world_scale 0.179523
comment frame_to_world_translation -45.2095 7.18301 -54.3561
comment width 1023
element vertex 110
property float x
property float y
property float z
property uchar red
property uchar green
property uchar blue
end_header
271 451 252 88 111 158
271 451 253 95 118 161
271 450 255 89 114 157
271 451 254 98 120 162
271 451 255 98 119 161
271 452 251 63 87 142
271 453 250 92 107 156
271 453 251 85 102 151
271 454 249 106 118 159
271 455 248 96 111 152
271 455 249 103 117 157
271 454 250 109 122 162
271 454 251 111 125 161
271 455 250 102 120 157
271 455 251 101 120 156
271 452 252 72 95 149
271 452 253 74 96 153
271 453 252 96 111 155
271 453 253 103 116 159
271 452 254 82 104 154
271 452 255 85 106 152
271 453 254 101 117 157
271 453 255 102 119 157
271 454 252 113 126 158
271 454 253 116 129 156
271 455 252 103 120 157
271 455 253 104 119 155
271 454 254 114 128 156
271 454 255 113 127 155
271 455 254 101 117 153
271 455 255 101 116 149
271 461 247 107 121 157
271 462 247 100 113 156
271 463 247 93 109 154
271 456 248 91 108 147
271 456 249 88 107 146
271 457 248 87 100 148
271 457 249 104 116 153
271 456 250 102 123 154
271 456 251 120 138 166
271 457 250 127 139 162
271 457 251 146 157 175
271 458 248 88 105 148
271 458 249 110 123 156
271 459 248 92 111 150
271 459 249 113 126 158
271 458 250 129 140 161
271 458 251 140 149 167
271 459 250 129 141 160
271 459 251 133 143 160
271 456 252 118 136 166
271 456 253 105 124 159
271 457 252 141 154 172
271 457 253 128 143 163
271 456 254 106 121 159
271 456 255 117 129 161
271 457 254 120 134 163
271 457 255 137 147 168
270 459 252 137 145 161
270 459 253 151 156 169
271 458 252 138 148 164
271 458 253 130 142 158
271 459 252 135 145 160
271 459 253 142 150 165
270 458 254 123 137 159
270 458 255 129 140 157
270 459 254 148 155 169
270 459 255 131 142 158
271 458 254 121 135 159
271 460 248 100 118 153
271 460 249 111 124 159
271 461 248 105 119 158
271 461 249 113 125 158
270 460 251 137 145 159
270 461 250 143 150 163
270 461 251 153 156 168
271 460 250 127 139 157
271 460 251 133 141 157
271 461 250 132 141 160
270 462 249 140 148 164
270 463 249 142 149 165
271 462 248 104 118 157
271 462 249 127 138 161
271 463 248 104 120 157
271 463 249 130 141 161
270 462 250 155 158 169
270 462 251 163 164 172
270 463 250 161 161 170
270 463 251 169 166 172
271 462 250 146 152 165
269 462 254 168 166 172
269 462 255 167 165 174
269 463 254 164 163 171
269 463 255 161 160 172
270 460 252 145 150 165
270 460 253 155 158 170
270 461 252 158 159 168
270 461 253 161 159 166
271 460 253 158 158 168
270 460 254 163 163 171
270 460 255 145 151 164
270 461 254 165 163 168
270 461 255 161 163 172
270 462 252 166 164 171
270 462 253 164 162 168
270 463 252 169 167 172
270 463 253 167 165 172
270 462 254 164 163 169
270 462 255 169 167 173
270 463 254 163 162 170
