ply
format ascii 1.0
comment Version 2, Copyright 2017, 8i Labs, Inc.
comment frame_to_world_scale 0.179523
comment frame_to_world_translation -45.2095 7.18301 -54.3561
comment width 1023
element vertex 297
property float x
property float y
property float z
property uchar red
property uchar green
property uchar blue
end_header
268 528 211 110 126 157
268 529 211 95 115 153
269 528 210 72 93 141
269 528 211 83 102 143
269 529 210 86 108 148
269 529 211 90 113 147
268 530 211 70 98 147
268 531 211 65 91 148
269 530 210 78 103 148
269 530 211 72 99 144
269 531 211 73 100 149
270 528 210 68 84 140
270 529 210 81 102 150
271 528 210 82 98 145
271 529 210 83 106 151
270 530 210 73 100 148
270 531 210 90 114 155
270 531 211 97 119 156
271 530 210 79 103 149
271 531 210 93 115 153
271 531 211 98 119 151
268 528 212 114 133 164
268 528 213 110 127 164
268 529 212 93 116 158
268 529 213 81 104 150
268 528 214 113 132 165
268 528 215 88 113 158
268 529 214 83 107 155
268 529 215 75 103 148
268 530 212 72 99 151
268 530 213 79 104 152
268 531 212 67 94 153
268 531 213 92 114 162
268 530 214 86 111 164
268 530 215 95 118 160
268 531 214 81 107 158
268 531 215 96 120 163
269 532 211 74 99 151
269 533 211 72 95 150
269 534 211 78 94 147
270 532 211 97 117 156
270 533 211 75 102 149
271 532 211 98 120 151
271 533 211 77 106 145
270 534 211 71 95 148
270 535 211 73 96 148
271 534 211 74 103 145
271 535 211 80 105 148
268 532 212 66 91 153
268 532 213 94 117 161
268 533 212 77 104 156
268 533 213 90 117 157
269 532 212 56 81 146
269 533 212 65 90 148
268 532 214 75 103 149
268 532 215 86 109 158
268 533 214 78 107 148
268 533 215 84 108 154
268 534 212 94 115 158
268 534 213 101 125 162
268 535 212 100 121 160
268 535 213 107 128 163
269 534 212 86 103 151
269 535 212 88 103 150
268 534 214 97 119 157
268 534 215 90 114 156
268 535 214 106 126 160
268 535 215 105 124 160
268 528 216 66 98 151
268 529 216 68 94 145
268 529 217 82 103 152
269 528 217 73 101 153
269 529 217 72 97 148
269 528 218 74 99 149
269 528 219 92 114 161
269 529 218 99 116 158
269 529 219 141 156 184
268 530 216 91 109 153
268 530 217 71 94 144
268 531 216 112 131 165
268 531 217 76 98 142
269 530 217 71 92 148
268 531 218 29 60 134
268 531 219 14 65 135
269 530 218 62 86 143
269 530 219 112 132 163
269 531 219 66 94 146
269 528 220 119 139 172
269 528 221 100 119 153
269 529 220 148 164 185
269 529 221 106 124 154
269 528 222 86 106 133
269 528 223 94 113 138
269 529 222 87 104 135
269 529 223 90 107 136
269 530 220 136 154 175
269 530 221 80 106 142
269 531 220 97 120 159
269 531 221 71 99 142
269 530 222 76 93 133
269 530 223 62 84 123
269 531 222 76 92 134
269 531 223 83 103 139
270 528 223 111 127 149
270 529 223 119 133 156
270 530 223 92 111 140
270 531 223 85 106 138
268 532 216 107 127 163
268 532 217 107 124 155
268 533 216 94 117 156
268 533 217 96 117 152
268 532 218 71 95 146
268 532 219 33 71 138
268 533 218 91 112 148
269 532 219 57 87 147
269 533 218 56 87 139
269 533 219 48 83 146
268 534 216 99 120 157
268 534 217 94 113 151
268 535 216 122 138 167
268 535 217 116 129 164
268 534 218 86 107 144
268 534 219 78 101 144
268 535 218 97 117 150
268 535 219 85 107 146
269 534 218 70 94 141
269 534 219 52 82 150
269 532 220 72 97 153
269 532 221 60 90 137
269 533 220 74 98 156
269 533 221 87 106 147
269 532 222 39 57 118
269 533 222 34 62 112
269 534 220 76 101 157
269 534 221 98 117 154
269 535 220 91 112 148
269 535 221 111 131 158
269 534 222 85 110 137
269 535 222 121 138 157
270 532 222 39 41 108
270 532 223 68 92 130
270 533 222 33 54 109
270 533 223 35 74 107
270 534 222 67 99 127
270 534 223 51 83 115
270 535 222 101 123 143
270 535 223 62 92 121
267 539 214 82 106 154
267 540 213 79 107 151
267 541 212 86 109 154
267 541 213 80 110 153
267 540 214 62 95 146
267 540 215 88 113 155
267 541 214 73 104 150
267 541 215 89 115 153
267 542 212 76 102 150
267 542 213 83 113 152
267 543 212 102 125 158
267 543 213 107 128 157
267 542 214 92 117 152
267 542 215 96 121 153
267 543 214 107 127 155
267 543 215 108 129 158
269 539 211 134 145 163
270 536 211 66 91 143
270 537 211 87 106 147
271 536 211 84 110 149
271 537 211 77 100 145
270 538 211 115 130 154
270 539 211 130 141 160
271 538 211 90 104 145
271 539 211 108 122 152
268 536 212 98 120 155
268 536 213 98 121 157
268 537 212 106 126 157
268 537 213 103 125 157
269 536 212 90 111 152
269 537 212 101 121 153
268 536 214 100 121 156
268 536 215 110 128 159
268 537 214 95 117 155
268 537 215 98 120 154
268 538 212 112 130 157
268 538 213 108 128 159
268 539 212 115 133 162
268 539 213 98 119 157
269 538 212 124 138 160
269 539 212 130 144 165
268 538 214 98 119 158
268 538 215 84 112 151
268 539 214 89 113 157
268 539 215 97 120 159
269 540 211 123 136 161
269 541 211 118 132 161
268 542 211 111 129 162
268 543 211 89 114 157
269 542 211 105 122 154
269 543 211 97 116 156
270 540 211 122 135 157
270 541 211 112 125 154
271 540 210 94 111 148
271 540 211 106 122 152
271 541 210 82 100 142
271 541 211 97 111 147
270 542 211 103 116 150
270 543 211 94 109 144
271 542 210 73 88 135
271 542 211 83 95 138
271 543 211 85 99 138
268 540 212 108 126 162
268 541 212 99 117 158
269 540 212 119 133 161
268 540 215 98 121 158
268 542 212 90 114 154
268 543 212 78 108 152
267 541 216 103 126 157
267 542 216 100 125 155
267 543 216 106 128 158
268 536 216 120 134 165
268 536 217 130 143 170
268 537 216 100 122 157
268 537 217 111 130 163
268 536 218 113 130 158
268 536 219 124 135 159
268 537 218 101 122 158
268 537 219 120 132 161
268 538 216 90 118 156
268 538 217 87 112 155
268 539 216 96 120 160
268 539 217 95 118 159
268 538 218 78 102 149
268 538 219 94 114 153
268 539 218 87 110 151
268 539 219 83 110 147
268 536 220 117 127 154
268 537 220 113 124 155
269 536 220 110 122 150
269 536 221 112 126 152
269 537 220 103 116 152
269 537 221 105 123 152
269 536 222 100 123 149
269 537 222 79 103 141
269 537 223 68 88 135
268 538 220 98 116 150
268 539 220 84 109 145
269 538 220 90 108 145
269 538 221 91 109 146
269 539 220 84 109 147
269 539 221 83 107 142
269 538 222 80 95 141
269 538 223 83 98 145
269 539 222 84 105 142
269 539 223 84 106 145
270 536 222 100 124 146
270 536 223 70 98 131
270 537 223 71 94 135
270 538 223 78 97 142
270 539 223 79 102 140
268 540 216 113 133 164
268 540 217 123 141 171
268 541 216 110 132 160
268 541 217 120 141 167
268 540 218 121 139 169
268 540 219 105 127 160
268 541 218 133 151 177
268 541 219 127 145 174
269 540 219 95 118 156
269 541 219 105 127 161
268 542 216 102 125 156
268 542 217 100 125 157
268 543 216 103 125 158
268 543 217 97 120 156
268 542 218 106 130 162
268 542 219 108 130 164
268 543 218 92 118 158
268 543 219 87 114 154
269 542 219 100 122 156
269 543 219 84 110 149
269 540 220 86 109 151
269 540 221 91 114 148
269 541 220 93 112 152
269 541 221 95 118 150
269 540 222 93 115 147
269 540 223 81 106 141
269 541 222 88 110 144
269 541 223 75 101 137
268 543 220 76 103 146
269 542 220 87 110 147
269 542 221 94 115 145
269 543 220 74 99 142
269 543 221 78 101 140
269 542 222 81 102 140
269 542 223 74 101 138
269 543 222 81 100 140
269 543 223 69 95 136
270 540 223 78 104 139
270 541 223 72 101 136
