ply
format ascii 1.0
comment Version 2, Copyright 2017, 8i Labs, Inc.
comment frame_to_world_scale 0.179523
comment frame_to_world_translation -45.2095 7.18301 -54.3561
comment width 1023
element vertex 346
property float x
property float y
property float z
property uchar red
property uchar green
property uchar blue
end_header
256 624 213 130 82 89
256 625 212 88 55 76
257 624 213 147 101 102
257 625 212 97 65 80
256 626 212 82 60 82
256 627 212 113 89 89
257 626 212 84 62 84
257 627 212 109 87 90
258 624 213 157 111 109
258 625 212 110 76 86
259 624 212 161 116 111
259 624 213 168 121 115
259 625 212 128 88 95
258 626 212 80 60 83
258 627 212 101 83 89
259 626 212 83 57 83
259 627 212 89 71 86
256 628 212 138 110 92
256 629 212 146 116 94
256 629 213 150 120 98
257 628 212 133 105 90
257 629 212 145 115 93
257 629 213 149 118 97
256 630 213 156 123 103
256 631 213 162 125 110
257 630 213 155 122 101
257 631 213 161 125 109
258 628 212 127 100 87
258 629 212 144 113 92
259 628 212 119 93 85
259 629 212 137 106 87
258 630 212 153 120 99
258 631 212 160 126 106
258 631 213 161 126 108
259 630 212 151 118 98
259 631 212 158 124 104
261 627 211 86 70 86
262 626 211 93 61 82
262 627 211 88 72 87
263 626 211 103 64 82
263 627 211 85 65 84
260 624 212 172 125 117
260 624 213 182 131 122
260 625 212 142 101 103
261 624 212 175 126 117
261 624 213 182 129 119
261 625 212 153 109 107
260 626 212 91 61 85
260 627 212 84 67 83
261 626 212 101 70 88
261 627 212 85 67 85
262 624 212 176 122 114
262 624 213 180 125 117
262 625 212 160 111 108
263 624 212 174 117 111
263 624 213 177 119 113
263 625 212 164 111 107
262 626 212 120 81 92
263 626 212 141 94 99
262 628 211 99 80 83
262 629 211 118 91 80
263 628 211 96 77 83
263 629 211 117 90 78
262 630 211 138 107 87
263 630 211 135 104 85
263 631 211 144 109 92
260 628 212 106 83 80
260 629 212 131 101 85
261 628 212 99 78 79
261 629 212 125 96 82
260 630 212 149 116 97
260 631 212 157 123 103
261 630 212 146 114 95
261 631 212 154 120 100
262 629 212 129 100 83
262 630 212 141 110 90
262 631 212 149 114 95
263 631 212 147 110 94
256 632 213 166 127 116
256 633 213 159 118 108
257 632 213 164 125 114
257 633 212 156 114 106
257 633 213 159 118 110
256 634 213 148 105 96
256 635 212 117 80 74
256 635 213 128 89 81
257 634 212 146 103 94
257 635 212 127 89 79
258 632 212 161 125 111
258 632 213 163 125 113
258 633 212 157 116 108
259 632 212 159 123 108
259 633 212 156 117 107
258 634 212 146 103 95
258 635 212 126 87 77
259 634 212 147 105 97
259 635 212 128 88 78
256 636 213 82 51 50
256 637 213 57 39 45
257 636 212 91 57 58
257 637 212 59 39 49
256 638 213 48 39 48
256 639 213 44 42 52
257 638 213 48 40 52
257 639 213 44 45 58
256 639 214 47 44 58
257 639 214 47 47 63
258 636 212 90 58 56
258 637 212 68 45 50
258 637 213 55 40 51
259 636 212 97 62 60
259 637 212 70 44 51
259 637 213 56 39 52
258 638 213 48 43 58
258 639 213 46 47 62
259 638 213 49 43 58
259 639 213 48 44 64
258 639 214 45 47 66
259 639 214 47 46 70
263 632 211 147 108 94
260 632 212 157 120 104
260 633 212 155 116 105
261 632 212 154 117 100
261 633 212 152 113 101
260 634 212 148 107 98
260 635 212 132 90 82
261 634 212 149 107 100
261 635 212 138 95 86
262 632 212 150 112 97
262 633 212 150 110 99
263 632 212 147 107 95
263 633 212 147 106 96
262 634 212 149 107 99
262 635 212 137 94 85
263 634 212 146 103 93
263 635 212 134 89 79
260 636 212 106 69 66
260 637 212 74 46 53
260 637 213 65 44 53
261 636 212 111 73 68
261 637 213 73 48 55
260 638 213 51 43 58
260 639 213 51 46 67
261 638 213 55 42 60
261 639 213 54 47 67
260 639 214 51 47 74
261 639 214 55 46 74
262 636 212 113 73 68
262 637 213 79 51 57
263 636 212 112 72 68
263 637 213 85 55 57
262 638 213 61 46 60
263 638 213 63 47 57
262 639 214 56 47 75
263 638 214 62 53 72
263 639 214 59 54 77
264 626 211 123 80 90
264 627 211 90 67 86
265 626 211 128 85 92
265 627 210 95 73 89
265 627 211 97 69 87
266 625 211 163 108 102
267 625 211 164 111 104
266 626 210 121 81 88
266 626 211 145 96 96
266 627 210 98 73 87
267 626 210 129 86 88
267 626 211 155 104 99
267 627 210 98 70 81
264 624 212 173 113 110
264 624 213 173 113 112
264 625 212 166 110 106
265 624 212 171 111 110
265 625 212 166 109 106
266 624 212 167 109 107
266 625 212 167 110 105
267 624 212 167 111 107
264 628 210 96 76 83
264 629 210 109 83 78
264 629 211 118 89 79
265 628 210 97 78 85
265 629 210 116 89 80
264 630 211 133 102 86
264 631 211 143 108 92
265 630 210 133 103 84
265 630 211 136 105 87
265 631 211 142 108 91
267 628 209 90 70 79
267 629 209 106 81 79
266 628 210 95 75 82
266 629 210 113 87 79
267 628 210 91 70 79
267 629 210 114 87 80
266 630 210 135 104 86
266 631 210 142 109 93
266 631 211 143 110 94
267 630 210 136 106 88
267 631 210 144 112 95
268 624 211 170 118 112
268 625 210 156 106 99
268 625 211 168 115 108
269 624 211 172 120 113
269 625 210 166 114 106
269 625 211 169 116 108
268 627 209 96 67 76
269 626 209 121 80 80
269 627 209 98 66 73
268 626 210 130 86 87
268 627 210 106 73 80
269 626 210 143 96 92
270 624 211 173 122 113
270 625 210 169 117 108
270 625 211 171 118 110
271 624 210 176 125 115
271 624 211 176 125 115
271 625 210 171 119 110
270 626 209 130 87 83
270 627 209 98 65 69
271 626 209 141 95 87
271 627 209 101 65 66
270 626 210 153 105 98
271 626 210 162 112 103
268 624 212 168 114 108
269 624 212 170 120 112
268 628 209 90 69 77
268 629 209 113 86 80
269 628 209 93 69 76
269 629 209 116 89 81
268 630 209 137 107 89
268 631 209 145 113 94
269 630 209 138 107 89
269 631 209 145 113 95
268 631 210 146 113 96
270 628 209 96 70 75
270 629 209 119 91 82
271 628 208 98 73 74
271 628 209 100 75 76
271 629 208 121 94 82
271 629 209 110 85 80
270 630 209 138 108 89
270 631 209 145 113 95
271 630 208 138 108 90
271 631 208 146 112 95
271 631 209 145 112 95
264 632 211 145 106 92
264 633 211 144 102 92
265 632 211 144 107 90
265 633 211 142 101 89
264 634 211 142 98 91
265 634 211 139 94 87
265 635 211 134 87 84
266 632 211 144 108 94
266 633 211 141 102 90
267 632 210 145 111 98
267 632 211 144 109 96
267 633 210 142 108 95
267 633 211 141 104 92
266 634 211 137 94 86
266 635 211 128 83 80
267 634 210 138 102 89
267 634 211 136 98 86
267 635 211 126 86 79
264 633 212 145 103 94
264 634 212 142 97 89
264 635 212 133 85 78
265 635 212 129 81 78
266 635 212 124 77 76
267 636 211 106 69 66
264 636 212 112 70 67
264 637 212 91 59 60
264 637 213 81 54 57
265 636 212 111 67 66
265 637 212 91 57 60
265 637 213 74 53 55
264 638 213 65 50 57
265 638 213 67 52 56
264 638 214 64 54 72
264 639 214 61 56 80
264 639 215 62 58 94
265 638 214 64 57 68
265 639 214 64 59 85
265 639 215 65 63 96
266 636 212 105 65 64
266 637 212 86 54 57
266 637 213 70 50 54
267 636 212 97 61 59
267 637 212 73 50 53
267 637 213 64 51 55
266 638 213 68 53 61
267 638 213 63 54 61
266 638 214 65 61 73
266 639 214 66 67 91
266 639 215 69 72 102
267 638 214 66 61 73
267 639 214 70 70 88
267 639 215 73 80 104
269 632 209 148 114 100
269 633 209 147 112 101
268 632 210 147 113 99
268 633 210 144 109 98
269 632 210 147 113 101
269 633 210 145 109 101
268 634 210 138 102 92
268 635 210 130 93 83
268 635 211 121 83 75
269 634 210 140 105 96
269 635 210 124 87 78
270 632 209 148 114 99
270 633 209 147 111 100
271 632 209 148 113 99
271 633 209 146 111 99
270 634 209 141 107 97
271 634 209 139 105 94
271 635 209 125 88 79
270 634 210 138 104 93
270 635 210 123 87 78
271 635 210 110 74 69
268 636 211 96 61 59
268 637 211 78 49 48
269 636 210 102 67 61
269 636 211 90 57 52
269 637 211 71 47 42
270 636 210 95 61 58
270 636 211 95 61 57
270 637 211 65 47 45
271 636 210 86 56 52
271 637 211 55 46 45
268 637 212 65 47 50
269 637 212 57 45 47
268 638 213 58 52 59
269 638 212 53 46 50
269 638 213 57 54 64
268 638 214 65 61 73
268 639 214 68 71 89
268 639 215 69 76 101
269 638 214 62 63 79
269 639 214 63 67 87
269 639 215 68 74 100
270 637 212 47 46 50
270 638 212 57 53 59
270 638 213 61 58 69
271 638 212 57 57 63
271 638 213 67 66 74
270 639 214 60 62 82
270 639 215 56 65 96
271 639 214 65 69 89
