ply
format ascii 1.0
comment Version 2, Copyright 2017, 8i Labs, Inc.
comment frame_to_world_scale 0.179523
comment frame_to_world_translation -45.2095 7.18301 -54.3561
comment width 1023
element vertex 311
property float x
property float y
property float z
property uchar red
property uchar green
property uchar blue
end_header
256 656 102 83 117 146
256 657 102 69 108 139
257 656 102 86 119 149
257 657 102 73 111 142
256 658 101 73 112 143
256 659 101 72 112 145
257 658 101 78 116 147
257 659 101 73 112 145
257 658 102 78 116 147
258 656 102 86 120 150
258 657 102 76 113 145
259 656 102 76 113 145
259 657 102 73 115 148
258 659 101 72 111 146
258 658 102 75 113 147
258 659 102 75 116 150
259 658 102 76 117 151
259 659 102 79 120 153
256 660 101 75 115 148
256 661 101 75 114 145
257 660 101 70 105 139
257 661 101 69 104 136
256 662 101 74 108 137
256 663 101 64 97 129
257 662 101 73 106 134
257 663 101 68 102 131
258 660 101 71 113 147
258 661 101 71 109 141
259 660 101 72 117 152
259 661 101 74 117 151
259 660 102 75 117 152
258 662 101 71 107 137
258 663 101 71 102 133
259 662 101 75 115 148
259 663 101 76 114 147
260 656 102 71 112 146
260 656 103 70 112 145
260 657 102 70 113 147
260 657 103 67 112 146
261 656 103 72 113 146
261 657 103 73 113 145
260 658 102 76 115 147
260 659 102 78 115 146
261 658 102 74 109 140
261 658 103 72 106 137
261 659 102 71 106 137
262 656 103 70 110 143
262 657 103 70 105 136
263 656 103 69 105 139
263 657 103 78 111 140
262 658 102 67 97 130
262 658 103 69 100 132
262 659 102 71 106 137
262 659 103 69 103 135
263 658 103 72 105 136
263 659 103 69 104 135
260 661 101 78 120 154
260 660 102 75 114 147
260 661 102 75 117 151
261 660 102 72 110 142
261 661 102 72 112 145
260 662 101 80 122 156
260 663 101 80 123 157
261 662 101 75 116 150
261 663 101 76 119 152
261 662 102 74 114 148
262 660 102 72 111 141
262 661 102 74 113 143
263 660 102 73 108 138
263 660 103 70 106 136
263 661 102 72 106 136
262 663 101 71 113 145
262 662 102 73 110 141
262 663 102 70 109 140
263 662 102 69 103 133
263 663 102 64 97 128
256 664 101 75 109 139
256 665 100 78 118 149
256 665 101 79 117 148
257 664 101 74 110 140
257 665 101 79 115 146
256 666 100 79 118 150
256 667 100 77 117 149
257 666 100 80 117 148
257 666 101 77 111 142
257 667 100 75 110 141
258 664 101 67 102 134
258 665 101 73 108 140
259 664 101 69 108 142
259 665 101 71 110 142
258 666 101 71 103 135
258 667 100 77 107 136
259 666 101 70 107 139
259 667 100 78 110 138
259 667 101 72 108 138
256 670 99 72 112 146
256 671 99 74 113 146
256 668 100 72 110 142
256 669 100 71 107 140
257 668 100 74 106 135
257 669 100 70 104 135
256 670 100 72 110 143
256 671 100 75 114 147
257 670 100 73 112 145
257 671 100 76 115 148
258 668 100 77 108 135
258 669 100 70 106 136
259 668 100 81 110 137
259 668 101 78 111 139
259 669 100 72 105 136
258 670 100 75 114 146
258 671 100 76 114 146
259 670 100 74 112 144
259 671 100 76 112 143
260 664 101 76 118 153
260 665 101 75 116 149
261 664 101 76 119 153
261 665 101 74 117 151
260 666 101 72 112 146
260 667 101 73 112 144
261 666 101 74 116 150
261 667 101 75 116 149
262 664 101 67 106 139
262 665 101 70 110 144
263 664 101 58 93 126
263 665 101 68 105 135
263 664 102 59 92 125
262 666 101 78 117 149
262 667 101 80 119 150
263 666 101 74 110 139
263 667 101 75 110 138
260 668 100 74 107 138
260 668 101 76 113 143
260 669 100 69 107 140
261 668 101 78 118 149
261 669 100 70 111 144
261 669 101 75 115 148
260 670 100 68 109 143
260 671 100 74 113 145
261 670 100 72 112 144
261 671 100 71 109 139
262 668 101 82 119 148
262 669 101 79 113 141
263 668 101 82 110 133
263 669 101 78 90 107
262 670 100 79 111 138
262 670 101 81 110 135
262 671 100 78 99 122
263 670 101 87 75 90
263 671 100 91 80 94
263 671 101 106 51 61
264 656 103 71 111 144
264 657 103 73 109 140
264 658 103 69 103 134
264 659 103 66 101 132
265 658 103 71 108 139
265 659 103 71 109 141
266 659 103 72 110 139
264 660 103 64 104 135
264 661 102 65 98 131
264 661 103 66 104 135
265 660 103 71 110 141
265 661 103 73 108 135
264 662 102 68 102 132
264 663 102 72 105 134
265 662 103 77 104 128
265 663 102 81 99 118
265 663 103 82 96 112
266 660 103 74 105 130
266 661 103 76 97 115
267 661 103 79 77 84
266 662 103 81 88 102
266 663 102 89 77 89
266 663 103 90 77 93
267 662 103 86 58 69
267 663 103 94 50 58
268 663 103 102 73 80
269 663 103 108 105 107
264 656 104 69 112 145
265 656 104 69 111 145
265 657 104 68 108 141
265 658 104 72 109 141
266 656 104 73 115 148
266 657 104 72 113 146
267 656 104 74 115 148
267 657 104 73 115 147
266 658 104 72 111 143
266 659 104 74 110 140
267 658 104 73 109 137
267 659 104 74 95 118
266 660 104 78 108 131
267 660 104 80 72 90
267 661 104 90 37 57
267 662 104 95 33 53
268 656 104 80 118 149
268 656 105 78 112 139
268 657 104 78 112 138
268 657 105 77 109 134
269 656 105 76 83 98
269 657 105 64 68 85
268 658 104 76 86 103
268 659 104 85 50 74
269 658 104 82 51 73
269 658 105 84 46 65
269 659 104 94 36 59
270 656 105 95 49 67
270 657 105 92 45 63
271 656 105 96 35 36
271 657 105 94 47 46
270 658 104 91 54 62
270 658 105 98 62 71
270 659 104 95 79 75
271 658 105 111 97 92
271 659 104 136 133 135
271 659 105 138 136 138
268 660 104 100 24 58
268 661 104 105 26 58
269 660 104 91 38 51
269 661 104 97 62 64
268 662 104 97 44 56
268 663 104 96 70 67
269 662 104 102 80 76
269 663 104 104 98 96
270 660 104 111 103 99
270 661 104 123 116 116
271 660 104 142 140 144
271 660 105 144 144 149
271 661 104 139 136 138
270 662 104 122 116 115
270 663 104 125 123 126
271 662 104 138 135 137
271 663 104 135 133 136
264 664 102 64 96 124
264 665 102 71 95 118
265 664 102 75 76 90
265 665 102 79 65 77
264 666 101 73 91 111
264 667 101 73 75 91
265 667 101 85 48 62
264 666 102 74 82 103
265 666 102 85 56 69
265 667 102 85 48 59
266 664 102 93 52 64
266 664 103 99 50 66
266 665 102 93 35 46
267 664 103 93 52 56
267 665 102 92 44 47
267 665 103 100 79 76
266 666 102 91 38 42
266 667 102 93 61 53
267 666 102 108 89 88
267 667 102 121 112 110
264 668 101 81 68 78
264 669 101 91 47 53
265 668 101 92 62 70
265 669 101 89 60 62
264 670 101 104 39 46
264 671 101 113 45 52
265 670 101 90 59 62
265 671 101 109 90 93
266 668 101 107 97 95
266 669 101 118 110 111
267 669 101 132 130 133
266 668 102 102 87 82
267 668 102 131 128 129
267 669 102 127 128 133
266 670 101 122 117 119
266 671 101 128 125 128
267 670 101 128 129 134
267 671 101 128 127 131
268 664 103 108 99 101
268 665 103 121 118 117
269 664 103 126 124 128
269 665 103 136 134 137
268 666 102 130 128 131
268 666 103 132 131 133
268 667 102 126 127 133
269 666 103 138 137 142
269 667 102 128 129 135
269 667 103 136 135 139
270 664 103 133 133 138
270 665 103 137 137 142
271 665 103 129 129 135
270 666 103 140 139 144
270 667 102 141 138 142
270 667 103 142 140 143
271 666 103 135 134 139
271 667 103 142 139 141
268 668 102 119 122 129
268 669 102 118 122 130
269 668 102 122 124 131
269 669 102 124 126 134
268 670 101 123 126 134
268 671 101 130 130 136
269 671 101 130 129 133
268 670 102 122 125 134
269 670 102 130 131 137
269 671 102 133 133 139
270 668 102 138 136 139
270 669 102 134 132 137
271 668 102 141 137 139
271 668 103 136 133 135
271 669 102 132 131 135
270 671 101 126 124 128
270 670 102 130 129 134
270 671 102 125 124 129
271 670 102 124 125 132
271 671 102 112 115 123
270 664 104 130 130 135
271 664 104 127 126 132
271 665 104 117 119 126
