ply
format ascii 1.0
comment Version 2, Copyright 2017, 8i Labs, Inc.
comment frame_to_world_scale 0.179523
comment frame_to_world_translation -45.2095 7.18301 -54.3561
comment width 1023
element vertex 301
property float x
property float y
property float z
property uchar red
property uchar green
property uchar blue
end_header
275 23 134 143 111 93
275 23 135 147 111 94
279 19 135 142 113 90
279 22 131 98 61 48
279 23 130 114 83 71
279 23 131 109 75 65
277 21 135 146 110 92
276 23 133 136 106 88
277 22 133 129 98 80
277 23 132 114 81 65
277 23 133 124 93 75
276 22 134 144 111 91
276 22 135 146 111 91
276 23 134 141 109 90
276 23 135 146 112 92
277 22 134 140 108 88
277 22 135 145 110 90
278 21 133 125 98 75
279 20 133 122 94 74
279 21 132 107 78 58
279 21 133 119 92 69
278 20 135 144 112 93
278 21 134 135 107 86
278 21 135 142 111 91
279 20 134 134 106 85
279 20 135 142 112 91
278 22 132 106 74 57
278 22 133 122 92 72
278 23 132 106 69 56
279 22 132 99 63 48
278 22 134 135 106 86
275 16 143 95 82 72
275 17 142 96 67 43
275 17 143 92 69 48
275 19 141 122 85 61
275 18 142 110 77 50
275 18 143 113 83 56
275 19 142 124 89 65
275 19 143 127 97 71
272 23 137 136 101 79
273 23 136 152 118 99
273 23 137 147 114 94
272 23 138 132 94 71
272 23 139 135 99 77
273 22 138 139 103 84
273 22 139 137 100 80
273 23 138 141 105 85
273 23 139 136 98 77
275 21 138 147 109 90
275 21 139 141 102 81
274 22 137 152 115 98
274 23 136 150 114 96
274 23 137 152 116 99
275 22 136 148 111 93
275 22 137 150 112 94
275 23 136 148 110 94
274 22 138 146 110 92
274 22 139 140 103 82
275 22 138 150 113 95
272 23 140 140 107 86
272 23 141 137 103 84
273 22 140 137 103 80
273 22 141 141 110 86
273 23 140 137 104 80
272 23 142 121 83 63
272 23 143 116 78 57
273 22 142 135 103 79
273 22 143 133 102 77
274 21 140 137 99 73
274 21 141 139 105 75
275 20 140 129 91 67
275 20 141 130 95 67
275 21 140 135 95 70
275 21 141 135 99 69
274 21 142 140 107 76
274 21 143 142 111 83
275 20 142 134 101 73
275 20 143 136 106 77
274 22 140 137 101 76
274 22 141 140 107 79
274 22 142 143 112 82
274 22 143 143 113 87
276 19 139 122 86 71
277 18 139 118 93 74
277 19 138 131 101 86
277 19 139 123 93 79
279 16 136 111 90 70
279 16 137 113 90 70
279 17 136 121 99 78
279 17 137 122 98 77
278 16 139 108 87 66
278 17 139 117 93 70
279 16 138 111 88 67
279 16 139 109 86 65
279 17 138 122 98 75
278 19 136 142 111 92
278 19 137 139 109 91
279 18 136 135 109 84
279 18 137 137 111 87
279 19 136 145 114 92
278 18 138 136 112 93
278 18 139 122 100 78
278 19 138 134 105 89
279 18 138 134 110 86
276 16 141 92 75 59
276 17 141 98 73 49
277 16 140 106 86 66
277 16 141 100 83 65
277 17 140 110 87 61
277 17 141 104 81 54
276 16 142 93 80 70
276 17 142 88 64 46
276 18 140 111 80 60
276 18 141 108 77 54
276 19 140 117 81 63
276 19 141 117 80 57
277 18 140 115 90 70
276 18 142 102 69 38
278 16 140 107 86 65
278 17 140 115 91 66
276 20 137 142 105 86
276 21 136 148 111 91
276 21 137 147 109 89
277 20 136 143 108 91
277 20 137 139 105 87
277 21 136 146 110 91
276 20 138 138 100 83
276 20 139 132 94 77
276 21 138 144 105 86
277 20 138 133 99 84
276 22 136 147 111 90
278 20 136 143 111 92
278 20 137 138 106 89
276 20 140 123 83 63
274 27 131 127 91 91
275 26 131 92 50 54
275 27 130 147 118 117
275 27 131 121 84 86
272 25 135 137 108 86
273 24 135 148 115 95
273 25 134 133 104 84
273 25 135 143 111 91
272 26 133 109 85 69
272 27 133 111 79 67
273 26 133 110 84 70
273 27 132 117 82 78
273 27 133 99 66 61
272 26 134 119 96 77
272 26 135 127 103 81
273 26 134 124 98 79
274 25 133 127 100 82
275 24 133 131 102 85
275 25 132 104 73 65
275 25 133 124 95 79
274 24 134 141 108 91
274 24 135 147 113 95
274 25 134 138 106 89
275 24 134 140 109 92
275 24 135 146 111 94
274 26 132 102 74 60
274 26 133 118 92 75
274 27 132 108 73 69
275 26 132 98 66 58
273 29 129 179 155 152
272 29 130 181 155 151
272 29 131 178 150 145
273 28 131 155 125 119
273 29 130 179 154 149
273 29 131 171 144 137
272 30 128 185 160 159
272 30 129 184 158 159
272 31 128 183 162 159
273 30 128 182 156 154
273 30 129 181 155 155
272 30 130 183 156 156
274 29 128 177 153 152
274 29 129 175 152 148
275 28 128 172 150 144
275 28 129 166 143 139
275 29 128 174 151 148
275 29 129 170 148 144
274 28 130 163 135 130
274 28 131 145 115 111
274 29 130 171 147 140
275 28 130 157 130 126
274 30 128 179 155 153
272 28 132 144 111 103
272 29 132 167 136 130
273 28 132 139 106 102
276 25 131 94 56 58
277 25 130 114 85 79
277 25 131 100 66 59
276 27 128 166 146 140
276 27 129 157 133 130
277 26 129 149 128 118
277 27 128 169 151 144
277 27 129 157 138 130
276 26 130 125 94 93
276 26 131 105 69 73
276 27 130 142 114 115
277 26 130 129 103 96
278 25 129 142 122 111
279 24 129 128 104 93
279 25 128 159 142 132
279 25 129 142 122 111
278 24 130 118 88 77
278 24 131 110 76 67
278 25 130 125 99 87
278 25 131 109 76 67
279 24 130 119 91 78
278 26 128 167 150 140
278 26 129 152 132 122
278 27 128 171 154 144
279 26 128 165 148 138
278 26 130 134 111 99
276 24 132 113 84 66
276 24 133 126 97 78
276 25 132 100 67 57
277 24 132 104 71 56
277 25 132 95 60 47
278 24 132 103 66 55
276 28 128 170 149 144
276 28 129 164 141 137
272 24 136 142 111 90
272 24 137 137 104 83
272 25 136 138 107 85
273 24 136 150 117 97
274 24 136 150 115 96
280 16 128 107 93 81
280 16 129 105 91 78
281 16 128 107 93 80
281 16 129 104 89 75
281 17 128 106 91 79
281 17 129 102 86 72
280 16 130 105 90 76
280 16 131 104 88 73
281 16 130 103 87 73
281 16 131 103 87 73
281 17 130 99 82 67
281 17 131 99 82 65
281 18 129 101 84 68
281 18 130 102 84 68
281 18 131 99 78 59
281 19 130 109 88 71
281 19 131 107 85 64
282 17 128 108 94 82
282 18 128 108 94 82
282 18 129 102 85 70
282 19 128 112 99 89
282 19 129 109 92 77
282 19 130 113 94 77
280 16 132 106 89 74
280 16 133 108 91 75
280 17 132 102 84 65
280 17 133 104 86 68
280 16 134 109 91 73
280 16 135 110 91 72
280 17 134 112 92 74
280 17 135 115 94 75
280 18 132 107 85 65
280 18 133 112 90 71
280 19 132 112 88 65
280 19 133 119 93 72
281 18 132 104 82 61
280 18 134 116 93 73
280 18 135 121 98 76
280 19 134 130 104 82
280 19 135 139 112 89
281 21 129 119 102 91
280 21 131 108 82 63
281 20 130 120 100 81
281 20 131 118 96 74
281 21 130 120 101 84
281 21 131 118 98 79
280 23 129 119 94 85
281 22 128 133 118 110
281 22 129 116 95 86
281 23 128 140 125 117
281 23 129 123 102 95
280 22 130 107 80 67
280 22 131 103 70 57
280 23 130 112 81 69
281 22 130 115 93 80
282 20 128 117 105 96
282 20 129 114 98 84
282 21 128 125 112 103
282 21 129 116 100 87
282 20 130 116 97 79
282 22 128 134 121 112
280 20 132 112 87 64
280 20 133 119 93 72
280 21 132 102 72 50
281 20 132 114 91 65
280 16 136 112 91 71
280 17 136 117 94 75
280 18 136 129 104 80
280 24 128 147 131 123
280 24 129 132 110 101
280 25 128 156 139 131
281 24 128 147 133 126
280 24 130 119 92 78
