ply
format ascii 1.0
comment Version 2, Copyright 2017, 8i Labs, Inc.
comment frame_to_world_scale 0.179523
comment frame_to_world_translation -45.2095 7.18301 -54.3561
comment width 1023
element vertex 357
property float x
property float y
property float z
property uchar red
property uchar green
property uchar blue
end_header
272 240 51 136 74 18
272 241 51 141 62 12
273 240 51 136 64 13
273 241 51 141 64 7
272 242 51 148 61 7
272 243 51 153 63 5
273 242 51 144 65 5
273 240 52 132 62 3
273 241 52 147 68 5
272 243 52 151 64 6
273 242 52 148 67 4
273 243 52 148 66 5
274 240 52 137 65 4
274 241 52 139 68 5
275 240 53 131 67 11
275 241 52 138 71 5
275 241 53 136 69 14
274 242 52 143 69 5
274 242 53 138 72 15
274 243 52 148 72 12
274 243 53 143 78 25
275 242 53 154 71 18
275 243 53 153 76 23
272 244 51 159 58 7
272 245 51 166 63 12
272 246 51 167 67 18
272 247 51 166 72 26
273 244 52 153 65 8
273 245 52 160 69 12
272 246 52 165 71 26
272 247 52 167 81 38
273 246 52 168 70 22
273 247 52 170 81 38
274 244 52 161 72 21
274 244 53 149 81 32
274 245 52 174 67 9
274 245 53 153 86 44
275 244 53 159 80 24
275 245 53 154 89 48
274 246 52 168 77 37
274 246 53 157 88 50
274 247 52 160 93 54
274 247 53 158 95 59
275 246 53 157 95 61
275 247 53 159 102 73
276 240 53 121 69 28
276 241 53 134 68 21
276 240 54 111 70 35
276 241 54 122 70 27
277 240 54 110 74 44
277 240 55 110 81 64
277 241 54 110 71 39
277 241 55 108 74 48
276 242 53 135 70 25
276 243 53 155 74 16
276 242 54 134 73 28
276 243 54 136 81 41
277 242 54 121 75 39
277 243 54 126 82 49
278 240 55 107 82 66
278 241 55 105 77 57
278 242 54 109 73 47
278 242 55 105 76 54
278 243 55 109 80 58
276 244 53 159 81 28
276 245 53 160 88 42
276 244 54 141 87 47
276 245 54 147 97 65
277 244 54 135 92 58
277 245 54 142 102 73
276 246 53 178 79 39
276 246 54 153 106 75
276 247 54 155 115 88
277 246 54 158 113 80
277 247 54 151 123 99
278 244 55 123 96 76
278 245 55 132 108 89
279 244 55 116 98 84
279 245 55 127 113 102
278 246 55 139 118 101
278 247 55 141 125 110
279 246 55 128 119 113
279 247 55 131 122 115
278 240 56 101 88 83
278 240 57 95 88 87
278 241 56 99 82 72
279 240 57 92 89 89
279 241 56 94 81 75
279 241 57 96 88 87
279 240 58 97 93 93
279 240 59 109 107 109
279 241 58 99 95 97
279 241 59 99 98 101
279 242 56 99 82 72
279 242 57 94 88 87
279 243 56 104 89 79
279 243 57 102 95 92
279 240 60 107 111 119
279 240 61 104 113 126
279 240 62 106 114 126
279 240 63 111 117 127
279 244 56 113 101 93
279 245 56 123 115 111
279 246 56 126 122 120
279 247 56 125 122 123
272 248 52 176 93 52
272 249 52 174 102 65
273 248 52 172 98 59
273 248 53 160 105 73
273 249 52 168 111 85
273 249 53 162 117 92
272 250 52 161 113 84
272 250 53 158 122 97
272 251 53 157 133 113
273 250 53 160 125 103
273 251 53 160 139 122
273 251 54 161 141 127
274 248 53 156 105 74
274 249 53 156 121 100
275 248 53 153 112 88
275 249 53 155 124 106
275 248 54 152 119 99
275 249 54 151 127 114
274 250 53 156 125 106
274 250 54 153 127 112
274 251 54 159 137 126
275 250 54 159 133 123
275 251 54 151 133 125
275 251 55 151 135 130
272 252 53 160 142 127
272 253 53 159 142 127
272 253 54 158 142 130
273 252 54 163 145 134
273 253 54 158 141 131
272 254 54 153 138 128
272 255 54 146 131 120
272 255 55 149 135 126
273 254 54 156 141 132
273 254 55 156 143 135
273 255 55 154 143 137
274 252 54 157 141 133
274 252 55 156 140 136
274 253 54 157 138 133
274 253 55 159 143 141
275 252 55 156 143 142
275 253 55 161 151 152
274 254 55 158 146 142
274 255 55 160 152 150
275 254 55 160 152 152
276 248 54 152 125 106
276 249 54 149 127 114
277 248 54 148 127 108
277 248 55 143 130 117
277 249 54 146 132 121
277 249 55 147 136 127
276 250 54 149 131 123
276 250 55 147 132 125
276 251 55 146 134 131
277 250 55 147 137 132
277 251 55 144 136 135
278 248 55 142 130 119
278 249 55 153 143 138
279 248 55 136 128 124
278 250 55 153 144 140
276 252 55 154 144 144
275 253 56 158 154 158
274 255 56 159 154 156
275 254 56 157 155 160
275 255 56 153 154 162
275 255 57 149 153 166
277 251 56 150 144 146
279 248 56 133 130 132
279 249 56 147 142 142
278 250 56 151 144 143
278 251 56 151 147 149
279 250 56 152 147 148
279 251 56 151 147 148
279 251 57 154 150 153
276 252 56 157 151 154
276 253 56 156 155 161
277 252 56 153 151 157
277 253 56 150 152 161
277 253 57 152 155 165
276 254 56 155 158 167
276 254 57 154 159 170
276 255 57 152 157 170
277 254 57 152 157 168
277 255 57 151 156 170
277 255 58 150 151 165
278 252 56 153 153 160
278 252 57 155 155 163
278 253 57 146 150 162
279 252 57 152 152 158
279 253 57 147 151 161
279 253 58 143 149 162
278 254 57 153 154 167
278 254 58 145 148 161
278 255 58 144 142 156
279 254 58 135 141 154
279 254 59 129 135 150
279 255 58 136 119 137
279 255 59 125 126 143
280 241 59 95 98 104
280 242 57 98 92 92
280 243 57 100 98 100
280 242 58 100 99 103
280 242 59 98 101 109
280 243 58 103 104 110
280 243 59 104 109 117
281 243 59 103 109 119
280 240 60 103 109 119
280 240 61 101 111 123
280 241 60 98 103 111
280 241 61 99 108 121
280 240 62 103 112 124
280 241 62 98 108 121
280 241 63 103 110 122
280 242 60 95 103 113
280 242 61 97 106 118
281 242 60 98 105 115
281 242 61 98 107 120
281 243 60 100 107 118
281 243 61 102 110 122
280 242 62 99 109 122
280 242 63 94 105 118
281 242 62 98 109 123
281 242 63 96 107 121
281 243 62 98 110 123
281 243 63 95 107 122
280 244 56 119 110 104
280 244 57 110 106 106
280 245 56 124 116 111
280 245 57 124 118 115
281 245 57 115 117 122
280 244 58 103 107 115
281 244 58 104 110 119
281 244 59 100 109 120
281 245 58 103 112 123
281 245 59 101 109 121
280 246 56 124 119 117
280 246 57 121 117 116
280 247 56 124 123 125
280 247 57 125 122 125
281 246 57 119 119 123
281 247 57 126 125 128
281 246 58 112 118 128
281 247 58 125 128 135
282 244 59 95 107 120
282 245 59 108 113 122
282 246 58 113 120 131
282 246 59 111 116 125
282 247 58 119 125 136
282 247 59 111 116 126
281 244 60 102 110 121
281 244 61 101 111 123
281 244 62 98 109 124
281 244 63 95 108 122
282 244 61 102 111 124
282 245 60 106 110 117
282 245 61 104 111 121
282 244 62 97 109 123
282 244 63 94 106 122
282 245 62 99 110 123
282 245 63 94 106 120
282 246 60 115 114 116
282 246 61 106 110 118
282 247 60 110 112 117
283 246 60 113 112 114
283 246 61 110 111 117
283 247 60 111 111 113
283 247 61 107 108 113
282 246 62 103 110 120
282 246 63 97 107 120
283 246 62 105 109 117
283 246 63 94 103 115
283 247 62 107 110 117
283 247 63 94 103 114
280 248 56 131 131 136
280 248 57 131 133 138
280 249 56 141 141 145
280 249 57 140 141 147
281 248 57 132 134 141
281 249 57 140 141 149
281 248 58 131 133 141
281 249 58 142 142 147
280 250 57 146 144 149
280 251 57 151 149 152
281 250 57 143 142 147
281 250 58 145 143 147
281 251 58 147 146 150
282 248 58 126 130 139
282 248 59 112 118 128
282 249 58 139 140 146
282 249 59 120 122 129
282 250 59 134 133 137
282 251 59 134 135 141
282 248 60 105 109 117
283 248 60 102 105 112
283 248 61 97 100 106
283 249 60 107 111 118
283 249 61 99 105 113
283 248 62 104 108 115
283 250 60 116 118 124
283 250 61 109 117 128
283 251 60 114 120 129
283 251 61 102 116 133
280 252 57 152 152 157
280 252 58 144 147 155
280 253 58 137 143 155
280 253 59 132 139 152
281 252 58 141 143 150
281 252 59 131 137 148
281 253 59 125 134 149
280 254 58 131 137 152
280 254 59 129 133 148
280 255 59 130 131 148
281 254 59 130 134 150
281 255 59 128 125 145
282 252 59 120 129 142
282 253 59 110 124 142
281 254 60 128 132 150
281 255 60 129 128 149
282 252 60 112 124 139
282 253 60 108 125 145
283 252 60 104 121 140
283 252 61 97 121 145
283 253 60 104 123 145
283 253 61 102 125 150
282 254 60 116 126 147
282 255 60 123 124 148
282 255 61 117 123 148
283 254 61 105 126 151
283 255 61 111 126 150
283 254 62 107 127 151
283 255 62 119 135 157
284 249 61 95 103 113
284 248 62 103 107 115
284 248 63 95 105 117
284 249 62 93 103 115
284 249 63 89 104 121
284 250 61 98 111 127
284 251 61 95 115 137
284 250 62 86 104 123
284 250 63 82 105 127
284 251 62 88 111 134
284 251 63 81 108 133
285 251 63 80 107 133
284 253 61 105 128 153
284 252 62 92 118 145
284 253 62 100 125 151
285 252 63 88 114 140
285 253 63 104 123 145
284 254 62 105 127 151
284 255 62 127 140 159
284 255 63 139 148 165
285 254 63 121 135 155
285 255 63 151 157 171
