ply
format ascii 1.0
comment Version 2, Copyright 2017, 8i Labs, Inc.
comment frame_to_world_scale 0.179523
comment frame_to_world_translation -45.2095 7.18301 -54.3561
comment width 1023
element vertex 401
property float x
property float y
property float z
property uchar red
property uchar green
property uchar blue
end_header
276 16 112 117 109 105
276 16 113 118 110 106
277 16 112 117 109 105
277 16 113 118 110 106
277 17 112 117 109 105
277 17 113 118 109 105
276 16 114 118 110 106
276 16 115 118 110 105
277 16 114 118 110 106
277 16 115 118 110 105
278 17 112 117 109 105
278 17 113 117 109 105
278 16 115 118 110 105
278 17 114 118 109 105
278 17 115 118 109 105
279 17 114 117 109 105
279 17 115 118 109 105
278 18 112 117 109 105
279 18 112 117 108 104
279 18 113 117 108 104
279 19 112 117 108 103
279 18 114 117 108 104
279 18 115 117 109 105
277 16 116 118 109 105
277 16 117 118 109 104
278 16 116 118 109 105
278 16 117 118 109 104
278 17 116 118 110 105
279 17 116 118 110 105
279 17 117 119 110 105
278 16 118 118 108 103
278 16 119 117 107 102
279 16 118 118 109 104
279 16 119 118 108 103
279 17 118 119 110 105
279 17 119 118 109 104
278 16 120 117 107 101
279 16 120 117 107 101
279 16 121 116 105 99
279 17 120 119 109 104
279 16 122 115 104 97
279 16 123 113 102 94
276 31 112 133 115 110
276 31 113 132 102 103
277 31 112 126 109 103
277 31 113 142 118 115
277 31 114 170 153 152
277 31 115 180 167 167
279 29 112 114 101 94
278 30 112 125 105 101
278 30 113 162 142 137
278 31 112 125 103 98
278 31 113 164 144 137
279 30 112 116 100 97
279 30 113 156 140 136
278 31 114 174 160 154
278 31 115 164 140 147
279 30 114 150 131 126
279 30 115 134 104 110
279 31 115 139 100 119
277 31 116 159 134 148
277 31 117 139 113 126
277 31 118 138 122 123
277 31 119 123 110 113
278 31 116 154 119 139
278 31 117 156 135 141
279 30 116 149 125 126
279 30 117 154 136 125
279 31 116 153 125 135
279 31 117 162 147 142
278 31 118 152 139 137
278 31 119 140 132 128
279 30 118 162 149 141
279 30 119 155 144 138
275 31 121 106 82 85
274 31 123 94 87 87
275 30 123 148 137 133
275 31 122 115 91 97
275 31 123 113 102 103
272 31 125 164 151 145
273 31 124 144 134 128
273 31 125 174 159 153
272 31 126 176 162 155
272 31 127 182 163 158
273 30 126 182 161 157
273 30 127 182 159 155
273 31 126 182 163 158
273 31 127 183 161 157
275 29 125 173 156 149
275 29 126 172 150 149
275 29 127 174 150 149
274 30 125 175 157 154
274 31 124 144 133 127
274 31 125 177 160 155
275 30 124 171 157 152
275 30 125 173 155 150
275 31 124 152 142 137
274 30 126 178 157 156
274 30 127 178 154 153
275 30 126 175 153 152
279 27 122 165 153 149
279 27 123 159 144 138
277 27 127 173 155 151
278 27 124 162 145 138
278 27 125 166 148 143
279 26 124 155 140 132
279 27 124 157 142 134
279 27 125 162 145 139
278 26 127 169 153 145
278 27 126 170 151 149
278 27 127 172 154 149
279 26 126 161 145 140
279 26 127 164 148 141
277 29 123 146 134 131
276 31 120 108 79 79
276 31 121 104 77 74
277 30 121 155 128 131
277 31 120 106 91 90
277 31 121 147 126 125
276 30 122 124 111 109
276 30 123 146 134 132
276 31 122 122 99 95
277 30 122 160 145 143
277 30 123 133 124 122
278 29 121 211 170 181
279 28 121 147 127 130
279 29 120 125 103 107
279 29 121 171 137 147
278 28 123 163 149 142
278 29 122 184 164 163
278 29 123 158 143 137
279 28 122 165 154 150
279 28 123 170 155 149
279 29 122 191 166 171
278 30 120 121 106 105
278 30 121 177 140 150
278 31 120 110 102 99
279 30 120 141 123 122
278 30 122 200 176 178
276 29 124 171 156 150
276 29 125 173 156 150
277 28 124 168 152 146
277 28 125 171 154 149
277 29 124 164 151 145
276 28 126 173 154 150
276 28 127 172 151 149
276 29 126 172 152 150
277 28 126 173 154 152
277 28 127 172 155 151
276 30 124 172 158 153
278 28 124 164 147 141
278 28 125 170 152 148
280 19 112 117 107 102
280 19 113 115 106 102
280 18 114 116 108 103
280 18 115 117 108 104
280 19 114 115 106 102
280 19 115 116 107 102
281 19 115 116 108 104
280 17 117 119 111 106
280 17 118 119 110 106
280 17 119 119 110 105
280 18 116 118 110 106
280 18 117 120 112 108
280 19 116 119 111 107
281 19 116 119 110 106
281 19 117 121 112 109
280 18 118 121 112 107
280 18 119 121 112 107
281 18 118 121 113 109
281 18 119 122 113 109
281 19 118 122 114 110
281 19 119 123 115 110
280 20 112 116 107 102
280 20 113 115 106 100
281 20 112 117 107 102
281 20 113 114 105 100
281 21 112 118 108 102
281 21 113 115 105 100
281 20 114 113 104 99
281 20 115 113 105 100
281 21 114 110 101 95
281 21 115 107 98 93
282 21 113 115 105 99
282 21 114 110 101 95
282 21 115 104 95 89
282 22 112 121 111 105
282 22 113 120 110 104
282 23 112 121 111 105
282 23 113 124 114 108
282 22 114 116 106 100
282 22 115 105 96 90
282 23 114 123 113 108
282 23 115 114 104 99
281 20 116 118 110 106
281 20 117 121 113 109
281 21 116 117 108 104
281 21 117 121 113 110
281 20 118 123 115 112
281 20 119 125 117 113
281 21 118 124 116 114
281 21 119 127 119 115
281 22 117 124 116 113
281 22 118 125 117 114
281 22 119 129 120 117
281 23 118 126 118 115
281 23 119 127 119 116
282 21 116 113 104 100
282 21 119 129 120 115
282 22 116 109 100 96
282 22 117 122 114 110
282 23 116 107 99 95
282 23 117 118 110 107
282 22 118 125 117 114
282 22 119 127 119 116
282 23 118 123 116 113
280 16 121 117 107 101
280 17 120 119 110 104
280 17 121 119 109 103
280 16 122 116 106 100
280 16 123 115 104 97
280 17 122 118 108 102
281 17 122 119 109 103
281 17 123 118 108 102
280 18 120 121 111 106
281 18 120 122 112 108
281 18 121 121 112 107
281 19 120 124 115 110
281 19 121 123 114 110
281 18 122 121 111 106
281 18 123 120 110 105
282 19 121 124 115 110
282 18 123 121 112 107
282 19 122 123 114 110
282 19 123 122 113 109
280 16 124 114 103 96
280 16 125 112 100 91
281 16 124 115 104 96
281 16 125 113 102 94
281 17 124 117 106 100
281 17 125 116 105 98
280 16 126 110 97 87
280 16 127 109 96 84
281 16 126 112 100 90
281 16 127 110 97 86
281 17 126 114 102 95
281 18 124 119 109 103
282 17 124 118 107 101
282 17 125 117 106 99
282 17 126 115 104 95
282 17 127 112 99 90
282 18 124 120 110 105
282 18 125 119 109 104
282 19 124 122 113 108
282 19 125 122 113 108
282 18 126 117 106 99
282 18 127 114 102 94
282 19 126 120 111 106
282 19 127 118 107 101
281 20 120 125 116 111
281 22 120 131 123 119
281 22 121 132 123 120
281 23 120 131 123 119
281 23 121 133 125 121
281 23 122 137 128 123
281 23 123 142 131 126
282 20 120 126 117 112
282 20 121 125 116 111
282 21 120 129 120 114
282 21 121 129 120 114
282 20 122 126 117 112
282 20 123 126 116 112
282 21 122 129 120 115
282 21 123 130 121 116
282 22 120 132 123 118
282 22 121 132 123 119
282 22 122 133 124 120
282 22 123 135 126 122
282 23 122 138 128 123
282 23 123 140 129 124
281 23 124 143 132 127
281 23 125 146 134 128
281 23 126 147 135 128
281 23 127 146 134 127
282 20 124 125 116 112
282 20 125 125 116 112
282 21 124 131 122 118
282 21 125 132 123 120
282 20 126 125 116 112
282 20 127 123 113 109
282 21 126 133 124 120
282 21 127 133 123 117
282 22 124 137 127 123
282 22 125 139 129 125
282 23 124 140 131 126
282 23 125 143 132 126
282 22 126 141 130 126
282 22 127 141 129 123
282 23 126 145 134 127
281 27 112 123 111 104
281 27 113 129 118 110
282 24 112 122 112 106
282 24 113 126 116 110
282 25 112 124 114 107
282 25 113 125 115 109
282 24 114 128 118 114
282 24 115 123 114 109
282 25 114 122 113 107
282 25 115 120 112 107
282 26 112 125 114 107
282 26 113 120 109 102
282 27 112 125 113 106
282 27 113 127 116 109
282 26 114 114 104 97
282 26 115 117 108 103
282 27 114 125 115 108
282 27 115 122 112 106
281 24 118 121 113 108
281 24 119 125 115 111
281 25 118 107 96 95
281 25 119 143 134 134
281 26 117 106 91 86
281 27 117 119 103 94
281 26 118 110 96 95
281 26 119 141 133 129
281 27 118 116 98 93
281 27 119 115 97 93
282 24 116 107 100 96
282 24 117 105 99 95
282 25 116 107 100 96
282 25 117 92 85 80
282 24 118 115 108 105
282 26 116 111 102 96
282 26 117 96 86 80
282 27 116 121 109 100
280 28 112 119 107 101
280 29 112 119 106 100
280 29 113 131 113 110
281 28 112 119 107 99
281 28 113 128 117 110
280 29 114 148 130 126
280 29 115 154 139 132
281 28 114 131 121 114
281 28 115 137 124 118
281 29 114 142 128 122
281 29 115 155 141 134
280 30 113 148 130 129
280 30 114 146 126 122
280 30 115 140 120 117
282 28 115 133 119 112
280 29 116 145 128 116
280 29 117 140 120 111
281 28 116 151 136 128
281 28 117 143 127 119
281 29 116 158 142 133
280 28 118 132 112 106
280 28 119 116 92 94
280 29 118 144 123 118
280 29 119 142 123 120
281 28 118 123 104 98
281 28 119 111 86 85
280 30 116 139 119 111
280 30 117 141 122 108
280 30 118 158 141 134
282 28 116 136 121 113
281 24 120 132 119 113
281 24 121 138 123 120
281 25 120 147 132 129
281 25 121 145 124 128
281 24 122 140 127 123
281 24 123 143 132 127
281 25 122 142 126 128
281 25 123 145 132 128
280 26 120 158 152 150
280 26 121 165 154 158
280 27 120 135 125 123
280 27 121 152 146 143
281 26 120 159 151 149
281 26 121 160 142 150
281 27 120 129 114 111
280 26 122 152 137 141
280 26 123 147 133 131
280 27 122 161 150 148
280 27 123 158 144 140
281 26 122 147 131 136
280 25 124 152 138 129
280 25 125 153 139 131
281 24 124 145 134 129
281 24 125 147 135 129
281 25 124 148 135 129
281 25 125 151 137 129
280 25 126 156 141 134
280 25 127 156 141 134
281 24 126 150 136 130
281 24 127 150 138 131
281 25 126 152 138 132
280 26 124 152 138 130
280 26 125 156 141 133
280 28 120 118 102 106
280 28 121 145 136 130
280 29 120 118 100 102
