ply
format ascii 1.0
comment Version 2, Copyright 2017, 8i Labs, Inc.
comment frame_to_world_scale 0.179523
comment frame_to_world_translation -45.2095 7.18301 -54.3561
comment width 1023
element vertex 278
property float x
property float y
property float z
property uchar red
property uchar green
property uchar blue
end_header
287 336 195 164 135 106
287 337 195 163 133 101
287 338 195 161 131 98
287 339 195 161 133 103
285 339 199 175 141 103
286 336 197 133 90 58
286 337 196 124 78 52
286 337 197 132 80 47
287 336 196 141 105 78
287 337 196 143 108 77
286 336 198 159 124 86
286 336 199 183 153 122
286 337 198 153 118 79
286 337 199 178 147 113
286 338 196 126 72 44
286 338 197 126 66 37
286 339 197 123 61 36
287 338 196 140 101 72
287 339 196 137 92 62
286 338 198 146 101 64
286 338 199 173 140 105
286 339 198 145 97 62
286 339 199 170 137 101
287 340 195 157 134 112
287 341 195 142 123 109
287 342 195 128 119 121
287 343 195 129 127 132
285 340 198 156 118 82
285 340 199 169 133 95
285 341 198 151 113 80
285 341 199 167 133 96
285 342 197 129 80 57
285 343 197 117 54 41
285 342 198 145 103 70
285 342 199 157 122 89
285 343 198 152 112 78
285 343 199 169 138 104
286 340 197 122 53 33
286 341 197 119 45 40
287 340 196 132 86 61
287 341 196 122 84 82
286 340 198 136 87 51
286 341 198 129 74 39
286 342 196 116 59 72
286 342 197 119 49 49
286 343 196 119 79 77
286 343 197 117 59 55
287 342 196 119 92 94
287 343 196 125 115 118
281 337 207 179 147 112
281 338 207 174 143 110
281 339 207 171 140 106
283 336 205 182 150 116
283 337 205 174 141 107
282 336 206 183 150 114
282 336 207 185 152 116
282 337 206 182 149 113
282 337 207 179 146 109
283 336 206 180 146 110
283 337 206 182 150 116
283 338 204 183 151 116
283 338 205 182 150 117
283 339 204 189 158 126
283 339 205 186 155 122
282 338 206 181 150 116
282 338 207 177 146 112
282 339 206 183 152 120
282 339 207 180 149 116
283 338 206 182 151 117
281 340 207 180 149 116
281 341 207 183 153 122
281 342 206 184 153 121
281 342 207 183 154 124
281 343 206 186 155 122
281 343 207 184 154 122
282 340 205 183 153 120
282 341 205 185 154 121
283 340 205 185 154 122
283 341 204 188 158 126
283 341 205 187 157 124
282 340 206 183 152 119
282 340 207 181 151 118
282 341 206 182 152 119
282 342 205 183 151 116
282 343 205 184 152 116
283 342 204 188 157 124
283 342 205 186 154 120
283 343 204 183 151 116
283 343 205 182 150 114
282 342 206 181 150 117
282 343 206 186 154 120
285 336 201 188 157 124
285 337 200 182 150 113
285 337 201 185 154 119
284 336 203 191 160 127
284 337 203 192 160 127
285 336 202 191 161 129
285 336 203 191 161 129
285 337 202 190 160 127
285 337 203 191 161 128
285 338 200 183 151 114
285 338 201 186 155 119
285 339 200 180 148 112
285 339 201 181 150 115
284 338 202 190 159 125
284 338 203 191 159 125
284 339 202 187 156 122
284 339 203 188 156 121
285 338 202 188 157 124
285 339 202 184 153 118
286 336 200 185 154 119
286 336 201 188 157 123
286 337 200 184 152 116
286 339 200 180 148 110
284 336 204 189 158 126
284 336 205 188 157 125
284 337 204 187 155 121
284 338 204 187 155 120
284 339 204 187 156 123
284 340 201 179 148 113
284 341 201 179 150 116
285 340 200 174 141 105
285 340 201 178 147 112
285 341 200 169 137 101
285 341 201 179 149 115
284 340 202 184 152 118
284 340 203 186 154 120
284 341 202 184 153 120
284 341 203 185 154 121
284 342 201 181 152 121
284 343 200 178 148 117
284 343 201 183 154 124
285 342 200 167 136 102
285 343 200 174 144 112
284 342 202 183 153 122
284 342 203 182 151 117
284 343 202 180 150 118
284 343 203 178 147 114
284 340 204 187 157 124
284 341 204 188 158 126
284 342 204 187 157 124
287 344 195 128 130 134
287 345 195 127 117 114
287 346 195 121 65 76
287 347 195 122 30 60
285 344 196 121 71 66
285 344 197 118 62 43
285 345 196 125 85 78
285 345 197 123 77 58
284 344 199 177 147 115
284 345 198 161 128 97
284 345 199 175 146 114
285 344 198 152 113 78
285 345 198 150 113 78
285 346 197 125 86 70
285 347 196 126 94 86
285 347 197 123 84 73
284 346 198 154 120 89
284 346 199 174 143 112
284 347 198 151 119 90
284 347 199 174 143 110
286 344 196 122 106 107
286 345 196 126 110 109
287 344 196 127 126 129
286 346 196 124 97 92
286 347 196 125 65 74
287 346 196 120 75 83
287 347 196 127 23 59
287 348 195 130 26 61
287 349 195 131 57 82
287 350 195 131 108 116
287 351 195 127 131 137
284 348 197 123 87 68
284 349 197 123 86 69
285 348 196 122 64 66
285 348 197 124 81 73
285 349 196 126 73 71
285 349 197 124 75 74
284 348 198 147 115 81
284 348 199 172 140 105
284 349 198 142 108 73
284 349 199 168 135 95
284 350 197 120 79 70
284 351 197 118 72 68
285 350 196 125 63 68
285 350 197 123 63 69
285 351 196 123 79 84
285 351 197 120 62 70
284 350 198 138 104 72
284 350 199 164 131 91
284 351 198 135 103 76
284 351 199 164 134 98
286 348 196 127 49 65
286 349 196 130 56 72
287 348 196 129 26 61
287 349 196 131 51 77
286 350 196 129 77 89
286 351 196 128 115 119
281 344 207 185 153 119
281 345 207 182 148 110
281 346 206 181 149 114
281 346 207 181 148 111
281 347 207 179 148 113
282 344 205 181 149 113
282 345 205 178 145 106
283 344 204 180 149 113
283 344 205 180 147 111
283 345 204 179 148 112
283 345 205 179 147 111
282 344 206 184 152 118
282 345 206 178 145 107
282 346 205 177 144 108
282 347 205 182 152 119
283 346 204 184 155 124
283 346 205 180 150 116
283 347 204 187 158 128
283 347 205 183 152 120
282 346 206 177 145 109
282 347 206 181 150 117
283 348 203 190 160 127
283 349 203 190 158 124
283 351 201 184 153 117
283 350 202 190 156 118
283 350 203 188 156 120
283 351 202 187 155 117
283 351 203 188 155 120
280 348 207 182 151 117
281 348 206 184 153 118
281 348 207 183 152 118
281 349 206 185 153 119
281 349 207 184 152 118
281 350 207 183 153 119
281 351 206 184 153 120
281 351 207 184 154 121
282 348 205 185 154 122
282 349 205 185 155 122
283 348 204 187 157 125
283 348 205 187 156 124
283 349 204 187 156 122
282 348 206 183 152 119
282 349 206 185 154 120
282 350 205 184 153 120
282 351 204 184 152 118
282 351 205 184 153 119
283 350 204 186 154 121
283 351 204 185 154 119
282 350 206 183 152 118
282 351 206 183 152 119
284 344 200 179 149 119
284 344 201 182 152 121
284 345 200 180 152 121
284 345 201 180 151 120
284 344 202 179 149 117
284 344 203 178 148 114
284 345 202 182 153 123
284 345 203 184 155 124
284 346 200 181 153 122
284 346 201 184 156 126
284 347 200 184 155 122
284 347 201 188 160 129
284 346 202 188 160 131
284 346 203 187 159 130
284 347 202 191 162 132
284 347 203 190 161 131
284 345 204 184 154 122
284 348 200 185 154 118
284 348 201 189 159 126
284 349 200 184 152 114
284 349 201 190 158 122
284 348 202 192 161 129
284 348 203 191 161 128
284 349 202 192 160 125
284 349 203 191 159 124
284 350 200 179 146 108
284 350 201 187 154 117
284 351 200 177 146 110
284 351 201 183 151 115
284 350 202 190 157 120
