ply
format ascii 1.0
comment Version 2, Copyright 2017, 8i Labs, Inc.
comment frame_to_world_scale 0.179523
comment frame_to_world_translation -45.2095 7.18301 -54.3561
comment width 1023
element vertex 456
property float x
property float y
property float z
property uchar red
property uchar green
property uchar blue
end_header
272 451 203 135 143 161
273 450 203 118 123 146
273 451 202 113 124 143
273 451 203 131 139 157
274 448 203 87 63 104
274 449 203 91 79 116
275 448 203 84 59 98
275 449 202 88 79 113
275 449 203 85 72 107
274 450 202 86 90 120
274 450 203 102 105 130
274 451 202 94 105 128
274 451 203 117 124 142
275 450 202 83 82 113
275 450 203 86 77 112
275 451 202 87 94 120
273 448 204 106 100 125
273 448 205 101 104 128
273 449 204 118 120 141
273 449 205 119 128 145
273 448 206 90 106 129
273 448 207 83 102 131
273 449 206 107 121 140
273 449 207 94 110 136
272 450 204 138 143 156
272 450 205 131 138 152
272 451 204 141 148 163
272 451 205 136 143 157
273 450 204 135 141 157
273 450 205 135 140 154
272 450 206 123 132 148
272 450 207 112 123 142
272 451 206 124 134 149
272 451 207 111 124 145
273 450 206 114 125 142
273 450 207 102 116 139
273 451 207 105 118 140
274 448 204 99 79 111
272 452 203 132 140 159
272 453 203 120 130 154
273 452 202 110 121 141
273 452 203 126 135 154
273 453 202 97 108 133
273 453 203 120 129 151
273 454 202 92 102 128
273 454 203 90 108 137
273 455 203 84 106 140
274 452 202 92 103 127
274 453 202 91 100 125
275 452 202 93 101 121
275 453 202 94 102 124
274 454 202 93 102 128
274 455 202 94 108 134
275 454 202 90 100 127
275 455 202 92 105 130
272 452 204 138 147 163
272 452 205 131 140 156
272 453 204 122 134 154
272 453 205 113 128 149
272 452 206 117 129 147
272 452 207 107 122 145
272 453 206 106 123 145
272 453 207 96 115 139
272 454 204 92 112 140
272 454 205 85 107 137
272 455 204 85 109 145
272 455 205 86 107 144
272 454 206 94 113 142
272 454 207 91 113 139
272 455 206 92 109 143
272 455 207 91 111 141
276 448 202 68 62 101
276 448 203 77 66 102
276 449 202 76 74 112
276 449 203 79 74 111
277 448 202 60 69 110
277 449 202 62 73 117
276 450 202 78 83 117
276 451 202 85 96 125
277 450 202 77 89 127
277 451 202 86 100 129
278 448 202 60 78 119
278 449 202 55 72 121
279 448 202 81 93 123
279 449 202 66 76 120
278 450 202 75 88 130
278 451 202 93 108 139
279 450 202 60 77 128
279 451 202 87 106 145
276 452 202 97 107 128
276 453 202 105 113 134
277 452 202 95 109 131
277 453 202 103 114 135
276 454 202 97 108 133
276 455 202 92 108 133
277 454 202 104 115 138
277 455 202 104 116 138
278 452 202 97 112 139
278 453 202 103 116 140
279 452 202 100 118 146
279 453 202 98 114 142
278 454 202 111 120 144
278 455 202 111 119 142
279 454 202 104 114 144
279 455 202 110 118 144
272 456 202 87 101 135
273 456 203 88 108 145
273 457 203 75 94 136
273 458 203 89 104 137
273 459 203 113 122 144
274 456 202 92 109 136
274 456 203 90 106 140
274 457 202 81 99 133
274 457 203 84 99 137
275 456 202 92 107 132
275 457 202 92 109 134
274 458 202 73 92 127
274 458 203 77 92 129
274 459 202 80 94 130
274 459 203 83 95 129
275 458 202 90 109 135
275 459 202 77 98 131
272 456 204 93 112 151
272 456 205 87 107 147
272 457 204 89 109 148
272 457 205 85 107 146
273 457 204 83 103 145
272 456 206 88 105 144
272 456 207 81 102 140
272 457 206 77 100 140
272 457 207 69 95 135
273 456 207 74 98 138
273 457 207 67 95 136
272 458 204 103 121 150
272 458 205 94 115 146
272 459 204 134 143 163
272 459 205 127 139 161
273 458 204 102 117 148
273 459 204 122 133 156
272 458 206 91 113 145
272 458 207 77 102 138
272 459 206 116 130 155
272 459 207 101 118 147
273 458 206 71 97 137
273 458 207 76 102 138
273 459 207 94 114 144
273 460 203 120 127 147
273 461 203 116 123 144
273 462 203 113 119 141
273 463 203 112 120 141
274 460 202 75 88 127
274 460 203 107 114 139
274 461 202 77 89 127
274 461 203 99 106 133
275 460 202 71 90 130
275 461 202 71 91 130
274 462 202 84 93 130
274 462 203 92 100 132
274 463 203 97 106 135
275 462 202 77 94 131
275 462 203 75 88 131
275 463 202 82 101 133
275 463 203 83 97 132
272 460 204 142 148 165
272 460 205 138 147 165
272 461 204 138 144 161
272 461 205 132 143 162
272 460 206 117 130 153
272 460 207 108 122 148
272 461 206 114 128 151
272 461 207 106 119 146
273 460 207 100 117 145
272 462 204 130 139 157
272 462 205 127 140 162
272 463 204 116 131 152
272 463 205 119 134 159
273 462 204 117 125 145
273 463 204 114 124 145
272 462 206 109 125 150
272 462 207 101 116 144
272 463 206 106 123 151
272 463 207 101 117 147
276 456 202 106 120 140
276 457 202 115 128 143
277 456 202 119 131 147
277 457 202 125 135 150
276 458 202 112 127 145
276 459 202 99 117 141
277 458 202 124 136 151
277 459 202 120 132 149
279 456 201 119 130 151
278 456 202 119 127 143
278 457 202 127 135 149
279 456 202 123 131 148
279 457 202 128 137 152
278 458 202 128 137 152
278 459 202 129 138 154
279 458 202 126 137 154
279 459 202 125 136 154
276 460 202 79 101 133
276 461 202 79 99 135
277 460 202 104 119 141
277 461 202 91 109 137
276 462 202 86 105 138
276 463 202 93 112 141
277 462 202 98 115 143
277 463 202 105 123 148
278 460 202 124 133 149
278 461 202 106 120 143
279 460 202 127 135 151
279 461 202 118 129 149
278 462 202 106 123 146
278 463 202 115 131 152
279 462 202 116 130 151
279 463 202 124 138 157
283 454 199 83 114 152
283 455 199 84 111 153
285 448 192 131 145 164
285 448 193 133 148 166
285 449 192 126 142 162
285 449 193 132 147 167
285 448 194 136 148 165
285 448 195 138 148 163
285 449 194 129 145 164
285 449 195 130 145 164
285 450 192 89 115 150
285 450 193 96 119 155
285 451 192 51 89 144
285 451 193 45 86 142
285 450 194 97 121 154
285 450 195 97 120 155
285 451 194 41 82 141
285 451 195 43 82 143
284 448 196 138 147 161
284 448 197 144 154 170
284 449 196 131 144 160
284 449 197 127 143 164
285 448 196 140 148 162
285 449 196 125 141 161
284 448 198 138 152 171
284 448 199 112 133 157
284 449 198 123 143 164
284 449 199 115 138 162
284 450 196 64 97 146
284 450 197 90 119 154
284 451 196 41 81 144
284 451 197 47 87 148
285 450 196 95 119 154
284 450 198 95 124 157
284 450 199 95 124 159
284 451 198 56 95 151
284 451 199 53 95 150
285 452 192 52 87 146
285 452 193 37 83 144
285 453 192 72 101 146
285 453 193 72 104 149
284 452 195 47 84 148
285 452 194 36 81 144
285 452 195 45 83 147
285 453 194 69 102 150
285 453 195 81 108 154
285 454 192 114 134 161
285 454 193 116 137 164
285 455 192 95 118 155
285 455 193 93 116 155
284 454 195 102 124 154
284 455 194 77 105 147
284 455 195 83 109 146
285 454 194 106 129 158
285 454 195 114 133 162
285 455 194 86 112 151
284 452 196 49 86 149
284 452 197 57 91 151
284 453 196 85 111 154
284 453 197 94 118 156
285 453 196 86 112 155
284 452 198 59 96 151
284 452 199 65 101 152
284 453 198 106 129 163
284 453 199 101 126 160
284 454 196 113 130 160
284 454 197 103 125 153
284 455 196 90 113 148
284 455 197 82 110 146
284 454 198 110 133 162
284 454 199 102 127 159
284 455 198 91 120 153
284 455 199 81 111 151
280 448 202 114 125 144
280 449 202 92 100 135
281 448 202 132 143 159
281 449 202 111 123 150
280 450 202 59 79 134
280 451 202 74 96 143
281 450 202 67 87 138
281 451 202 66 91 145
282 448 201 134 150 171
282 449 201 130 148 172
283 448 200 119 139 165
283 448 201 117 137 162
283 449 200 134 153 177
283 449 201 129 149 173
282 448 202 138 152 170
282 449 202 133 148 169
282 450 201 81 106 153
282 451 201 63 91 149
283 450 200 108 133 168
283 450 201 93 120 161
283 451 200 55 92 150
283 451 201 54 89 148
282 450 202 87 107 150
282 451 202 60 88 146
280 452 202 98 118 151
280 453 202 96 116 146
281 452 202 105 127 162
281 453 202 112 133 161
281 454 201 86 107 150
281 455 201 100 116 152
280 454 202 93 108 146
280 455 202 103 116 149
281 454 202 90 112 150
282 452 201 87 112 156
282 453 201 109 133 163
283 452 200 81 106 156
283 452 201 83 109 156
283 453 200 127 145 172
283 453 201 125 145 172
282 452 202 106 127 164
282 453 202 118 138 168
282 454 201 91 119 156
282 455 201 99 117 156
283 454 200 103 129 161
283 454 201 107 133 165
283 455 200 91 113 157
284 448 200 110 130 157
284 449 200 124 145 170
284 450 200 94 123 161
284 451 200 58 96 151
284 452 200 76 105 155
284 453 200 107 129 163
283 456 199 106 122 155
283 457 199 127 138 157
283 458 198 161 163 173
283 458 199 154 158 169
283 459 198 166 167 175
283 459 199 167 168 176
283 460 198 166 166 173
283 460 199 166 166 174
283 461 198 164 165 173
283 461 199 166 166 174
283 462 198 162 164 172
283 462 199 163 165 174
283 463 198 163 163 171
283 463 199 165 165 173
284 456 193 67 92 148
284 457 192 61 95 146
284 457 193 68 94 147
285 456 192 61 91 148
285 456 193 60 89 146
285 457 192 53 89 145
285 457 193 51 84 144
284 456 194 70 98 148
284 456 195 88 112 149
284 457 194 83 106 149
284 457 195 109 128 156
284 458 192 125 140 161
284 458 193 121 135 157
284 459 192 148 155 168
284 459 193 145 152 164
285 458 192 90 115 148
284 458 194 123 137 158
284 458 195 136 147 163
284 459 194 147 154 166
284 459 195 155 159 171
284 456 196 102 123 151
284 456 197 109 128 154
284 457 196 130 144 162
284 457 197 138 148 163
284 456 198 124 140 164
284 456 199 99 120 154
284 457 198 144 152 167
284 458 196 147 154 168
284 458 197 153 157 168
284 459 196 161 164 174
284 459 197 164 166 174
284 458 198 156 159 169
284 459 198 166 166 175
284 460 192 141 150 164
284 460 193 145 151 163
284 461 192 126 137 155
284 461 193 146 152 166
284 460 194 155 159 169
284 460 195 160 163 173
284 461 194 157 160 171
284 461 195 161 163 173
284 462 192 112 127 146
284 462 193 142 149 164
284 463 192 110 126 147
284 463 193 139 147 162
284 462 194 156 160 170
284 462 195 159 162 171
284 463 194 159 161 171
284 463 195 162 162 170
284 460 196 163 165 174
284 460 197 165 165 174
284 461 196 162 163 172
284 461 197 164 164 172
284 460 198 165 166 174
284 462 196 159 162 172
284 462 197 162 163 172
284 463 196 160 162 171
284 463 197 161 162 171
280 456 201 129 140 158
280 457 201 146 153 166
281 456 201 127 139 157
281 457 201 151 158 172
280 456 202 124 135 154
280 457 202 141 149 162
280 458 201 140 147 162
280 459 201 134 144 162
281 458 201 146 152 165
281 459 201 143 152 167
280 458 202 133 143 159
280 459 202 124 135 155
282 456 201 119 134 157
282 457 201 147 155 170
283 456 200 109 122 157
283 457 200 128 139 160
282 458 200 147 154 168
282 458 201 143 151 164
282 459 200 162 165 176
282 459 201 154 159 172
283 458 200 151 157 169
283 459 200 166 168 178
281 460 201 148 154 167
281 461 201 154 159 171
280 460 202 123 134 152
280 461 202 115 127 146
281 461 202 145 152 167
281 462 201 152 159 173
281 463 201 149 155 169
280 462 202 113 128 148
280 463 202 125 137 154
281 462 202 139 148 164
281 463 202 135 144 158
282 460 200 163 165 174
282 460 201 160 162 172
282 461 200 165 166 174
282 461 201 162 164 173
283 460 200 167 167 175
283 461 200 165 166 174
282 462 201 158 161 173
282 463 201 160 163 173
283 462 200 163 165 174
283 463 200 165 166 174
282 463 202 145 151 164
