ply
format ascii 1.0
comment Version 2, Copyright 2017, 8i Labs, Inc.
comment frame_to_world_scale 0.179523
comment frame_to_world_translation -45.2095 7.18301 -54.3561
comment width 1023
element vertex 304
property float x
property float y
property float z
property uchar red
property uchar green
property uchar blue
end_header
285 416 176 160 146 136
285 416 177 147 134 122
285 417 177 134 118 103
284 416 178 150 135 121
284 416 179 144 126 110
284 417 178 152 136 122
284 417 179 157 140 123
285 417 178 141 124 110
285 418 177 137 119 100
285 419 177 145 127 109
284 418 178 143 126 110
284 418 179 153 137 121
284 419 178 140 122 104
284 419 179 144 127 110
285 418 178 133 115 98
285 419 178 144 126 107
286 416 176 156 141 130
286 417 176 145 129 113
286 418 176 143 125 106
286 418 177 142 124 104
286 419 176 138 119 99
286 419 177 144 127 109
287 418 176 139 119 99
287 419 176 124 97 80
284 416 180 142 124 108
284 416 181 148 132 116
284 417 180 157 139 121
284 417 181 152 135 117
284 417 182 151 135 120
284 417 183 146 130 116
285 416 182 148 132 117
285 416 183 144 128 112
285 417 183 141 125 110
284 418 180 158 141 125
284 418 181 154 137 120
284 419 180 152 135 117
284 419 181 154 137 120
284 418 182 145 129 113
284 418 183 142 127 114
284 419 182 143 128 113
284 419 183 130 116 103
284 420 179 148 128 108
284 421 179 157 138 117
285 420 178 150 132 112
285 421 178 154 136 117
285 421 179 157 138 116
284 422 179 148 130 108
285 422 178 147 132 120
285 422 179 150 132 111
285 423 178 130 107 110
285 423 179 132 105 94
286 420 177 135 119 104
286 421 177 131 120 117
287 420 176 116 91 98
287 421 176 109 105 123
287 421 177 113 111 130
286 421 178 144 132 123
286 422 177 121 114 131
286 423 177 103 103 129
287 422 176 82 104 133
287 422 177 100 107 130
287 423 176 69 97 128
287 423 177 72 95 126
286 422 178 139 126 130
286 423 178 118 104 122
284 420 180 145 125 106
284 420 181 148 129 110
284 421 180 153 134 115
284 421 181 143 124 107
284 420 182 146 130 115
284 420 183 135 123 112
284 421 182 138 123 109
284 421 183 135 123 113
284 422 180 151 133 113
284 422 181 150 135 119
284 423 180 128 99 80
284 423 181 130 109 93
284 422 182 147 135 123
284 422 183 145 134 126
284 423 182 142 128 119
284 423 183 148 139 134
285 416 184 139 123 107
285 416 185 127 111 97
285 417 184 134 117 101
285 417 185 130 115 101
285 416 186 121 107 93
285 417 186 129 115 102
285 417 187 128 115 104
284 418 184 138 125 113
284 419 184 127 114 103
285 418 184 130 116 104
285 418 185 119 105 92
285 419 184 125 113 103
285 419 185 121 110 100
285 418 186 118 105 94
285 418 187 121 109 99
285 419 186 114 102 94
285 419 187 114 104 96
286 416 187 123 111 101
286 417 187 124 112 104
286 418 187 132 120 111
286 419 187 127 116 109
286 416 188 128 117 110
286 416 189 125 113 106
286 417 188 128 117 111
286 417 189 142 131 126
286 416 190 126 114 106
286 417 190 148 136 130
287 416 190 131 119 112
287 416 191 144 133 128
287 417 191 144 131 125
286 418 188 137 126 121
286 418 189 144 134 129
286 419 188 143 133 128
286 419 189 150 140 136
286 418 190 152 141 136
286 418 191 158 145 139
286 419 190 150 139 135
286 419 191 155 143 137
287 418 191 154 141 136
284 420 184 126 115 107
284 421 184 135 125 120
285 420 185 121 111 105
285 421 185 133 126 122
285 420 186 120 111 106
285 420 187 126 116 113
285 421 186 131 123 121
285 421 187 130 122 120
284 422 184 132 123 118
284 422 185 127 119 114
284 423 184 139 130 126
284 423 185 131 122 118
285 422 185 132 125 122
285 423 185 128 119 115
285 422 186 137 129 128
285 422 187 139 133 132
285 423 186 132 124 121
285 423 187 142 135 134
286 420 187 131 122 118
286 421 187 135 126 124
286 422 187 140 134 134
286 423 187 143 137 137
286 420 188 138 129 125
286 420 189 150 140 137
286 421 188 138 130 128
286 421 189 135 126 123
286 420 190 152 142 137
286 420 191 142 131 125
286 421 190 138 128 125
286 421 191 147 136 131
286 422 188 141 135 136
286 422 189 142 134 133
286 423 188 145 139 139
286 423 189 144 139 140
286 422 190 122 114 111
286 422 191 120 110 104
286 423 190 143 138 138
286 423 191 122 113 108
285 424 178 114 84 118
285 424 179 132 87 110
285 425 178 96 86 132
285 425 179 126 103 133
285 426 179 90 93 137
285 427 179 46 69 125
287 424 177 63 89 126
287 425 177 70 97 135
286 424 178 100 92 129
286 425 178 82 91 137
287 425 178 83 105 145
287 426 177 87 112 145
287 427 177 67 97 133
286 426 178 65 90 141
286 427 178 46 80 138
286 427 179 45 72 131
287 426 178 79 108 147
287 427 178 67 98 142
284 424 180 132 81 90
284 424 181 121 74 77
284 425 180 139 97 116
284 425 181 134 83 103
285 425 180 138 111 132
284 424 182 120 88 87
284 424 183 140 125 123
284 425 182 128 77 90
284 425 183 129 102 100
284 426 180 123 98 125
284 426 181 110 88 116
284 427 181 73 84 117
285 426 180 101 90 126
285 427 180 57 74 119
284 426 182 116 91 102
284 426 183 117 98 97
284 427 182 88 92 110
284 427 183 100 99 105
286 428 178 61 92 143
286 428 179 34 75 132
286 429 179 55 91 140
287 428 178 69 102 142
287 429 178 69 106 147
287 429 179 62 95 144
287 430 178 63 105 149
287 430 179 69 99 147
287 431 179 76 103 151
284 428 181 57 92 129
284 429 181 58 93 133
285 428 180 36 81 126
285 428 181 52 89 130
285 429 180 62 97 132
285 429 181 82 110 143
284 428 182 59 87 121
284 428 183 73 90 114
284 429 182 55 87 131
284 429 183 48 77 122
285 429 182 83 111 146
285 430 181 111 133 155
285 431 181 109 131 155
284 430 182 63 99 139
284 430 183 48 86 131
285 430 182 83 113 146
285 430 183 47 90 134
285 431 182 94 120 150
285 431 183 50 92 137
286 429 180 74 107 141
286 430 180 101 124 152
286 430 181 115 134 153
286 431 180 110 130 155
286 431 181 120 139 158
287 431 180 94 117 149
284 424 184 141 132 129
284 424 185 138 129 126
284 425 184 136 121 118
284 425 185 137 129 126
285 424 185 133 124 121
285 425 185 132 125 124
285 424 186 130 119 115
285 424 187 137 127 123
285 425 186 134 125 122
285 425 187 129 118 113
284 426 184 118 103 98
284 426 185 131 120 116
284 427 184 105 101 101
284 427 185 110 99 98
284 426 186 141 131 126
284 427 186 122 107 105
285 426 186 143 133 128
285 426 187 138 128 122
285 427 186 135 125 121
285 427 187 142 131 126
285 425 188 134 123 118
285 426 188 117 105 98
285 427 188 134 124 117
285 427 189 113 101 88
286 424 188 151 143 140
286 424 189 147 139 138
286 425 188 141 130 125
286 425 189 152 142 138
286 424 190 136 129 128
286 424 191 134 126 123
286 425 190 149 139 134
286 425 191 127 115 106
286 426 189 123 111 102
286 427 189 110 98 85
286 426 190 143 133 128
286 426 191 143 131 123
286 427 190 118 109 100
286 427 191 132 122 114
284 428 184 90 93 107
284 428 185 101 90 98
284 429 184 75 87 119
284 429 185 98 90 110
284 428 186 111 85 91
284 429 186 111 81 98
285 428 187 127 100 100
285 429 186 121 72 95
285 429 187 125 68 92
284 430 184 70 98 134
284 430 185 103 110 132
284 431 184 78 105 139
284 431 185 102 118 140
285 431 184 64 98 140
285 431 185 98 117 143
284 430 186 116 107 127
285 430 186 121 90 115
285 430 187 124 63 101
285 431 186 118 116 136
285 431 187 119 89 116
285 428 188 142 125 121
285 428 189 133 120 112
285 429 188 125 72 89
285 429 189 125 87 90
285 430 188 126 45 89
285 430 189 128 46 83
285 431 188 121 60 97
285 431 189 123 44 88
286 428 189 124 114 104
286 428 190 116 106 95
286 428 191 123 113 104
286 429 190 116 90 79
286 429 191 113 98 81
286 431 189 126 45 87
286 430 190 126 58 76
286 430 191 117 81 71
286 431 190 127 51 84
286 431 191 119 72 77
