ply
format ascii 1.0
comment Version 2, Copyright 2017, 8i Labs, Inc.
comment frame_to_world_scale 0.179523
comment frame_to_world_translation -45.2095 7.18301 -54.3561
comment width 1023
element vertex 294
property float x
property float y
property float z
property uchar red
property uchar green
property uchar blue
end_header
273 450 247 104 122 170
273 451 247 86 105 164
274 448 247 115 139 171
274 449 247 121 142 175
275 448 247 86 117 165
275 449 246 100 128 171
275 449 247 94 122 166
274 450 247 101 124 169
274 451 246 97 122 173
274 451 247 87 111 168
275 450 246 95 124 170
275 450 247 94 122 168
275 451 246 96 124 173
272 453 247 88 104 154
273 452 247 87 106 163
273 453 247 100 119 168
272 454 247 84 98 149
272 455 247 95 108 152
273 454 246 100 120 163
273 454 247 96 113 160
273 455 246 97 119 157
273 455 247 99 116 156
274 452 246 97 121 172
274 452 247 89 112 169
274 453 246 96 119 166
275 452 246 98 127 173
275 453 246 98 125 168
275 454 245 128 144 177
275 455 245 118 134 168
274 454 246 111 133 168
274 455 246 109 130 166
275 454 246 113 135 171
275 455 246 114 136 169
279 450 243 151 158 173
279 451 243 136 146 163
277 448 245 174 181 193
277 449 245 152 165 182
276 448 246 124 145 178
276 449 246 124 147 181
277 448 246 167 178 194
277 449 246 149 167 189
277 450 245 106 128 165
277 451 245 93 116 167
276 450 246 99 125 172
276 451 246 90 120 169
277 450 246 103 128 169
278 448 245 173 177 187
278 449 245 147 158 175
279 448 244 169 171 182
279 449 244 159 166 180
278 450 244 102 120 158
278 450 245 108 126 162
278 451 245 99 118 164
279 450 244 134 146 169
279 451 244 107 124 159
279 452 243 149 159 174
279 453 243 138 154 172
279 454 243 100 124 157
279 455 243 99 116 155
276 452 245 92 119 166
276 453 245 99 124 168
277 452 245 98 121 168
277 453 245 99 124 167
276 452 246 89 121 167
276 454 245 112 130 170
276 455 245 125 136 172
277 454 244 112 130 166
277 454 245 104 125 165
277 455 244 110 129 165
277 455 245 113 129 167
278 452 244 110 131 166
278 452 245 105 125 166
278 453 244 121 143 172
278 453 245 108 130 167
279 452 244 122 141 166
279 453 244 138 155 176
278 454 244 105 126 162
278 455 244 106 122 165
272 448 249 94 111 143
272 449 249 88 105 145
273 448 248 127 140 167
273 449 248 121 136 168
272 448 250 88 107 146
272 448 251 96 117 156
272 449 250 75 96 145
272 449 251 82 107 154
272 450 248 83 100 148
272 450 249 76 96 142
272 451 248 73 92 147
272 451 249 79 96 144
273 450 248 99 116 159
273 451 248 80 97 152
272 450 250 80 101 145
272 450 251 74 103 149
272 451 250 88 107 148
272 451 251 98 118 156
274 448 248 140 156 180
272 448 252 94 118 154
272 448 253 81 110 146
272 449 252 90 116 158
272 449 253 83 111 156
272 448 254 93 118 150
272 448 255 116 135 162
272 449 254 82 112 154
272 449 255 90 118 156
272 450 252 86 113 157
272 450 253 90 118 159
272 451 252 96 119 160
272 450 254 84 112 155
272 450 255 79 109 153
272 452 248 61 81 141
272 452 249 53 75 136
272 453 248 64 81 140
272 453 249 62 79 142
272 452 250 48 75 134
272 452 251 61 86 139
272 453 250 69 88 146
272 454 248 80 93 146
272 454 249 95 107 154
272 455 248 90 103 149
272 452 252 73 97 147
272 456 247 90 104 146
272 457 247 82 102 147
273 456 246 93 115 152
273 456 247 88 109 147
273 457 246 121 138 171
273 459 245 118 140 169
272 458 246 113 135 168
272 458 247 85 110 150
272 459 246 132 152 178
272 459 247 100 123 155
273 458 246 116 137 168
273 459 246 128 149 176
274 457 245 161 177 197
275 457 245 145 162 184
274 456 246 110 132 168
274 457 246 151 168 192
275 456 246 99 122 162
275 457 246 128 146 177
274 458 245 127 147 173
274 459 245 111 131 167
275 458 245 128 145 174
275 459 245 106 124 169
273 460 245 115 138 171
273 461 245 102 128 168
272 460 246 141 158 183
272 460 247 112 131 160
272 461 246 124 143 174
272 461 247 117 132 164
273 460 246 138 157 183
273 461 246 113 137 172
273 462 245 97 125 171
273 463 245 101 128 175
272 462 246 101 120 162
272 462 247 108 121 162
272 463 246 96 116 162
273 462 246 100 126 169
273 463 246 99 125 172
274 460 245 96 120 168
274 461 245 85 114 167
275 460 245 85 115 168
275 461 245 86 120 170
274 462 245 94 122 172
274 463 245 109 135 179
275 462 245 93 122 169
275 463 244 89 119 165
275 463 245 94 123 168
279 456 243 103 127 159
279 457 243 134 157 182
279 458 243 106 137 166
279 459 243 91 124 158
276 456 245 100 113 156
276 457 245 114 129 165
277 456 244 99 123 165
277 456 245 101 118 160
277 457 245 107 125 167
276 458 245 116 133 168
276 459 245 99 122 167
277 458 245 99 125 165
277 459 245 99 130 166
278 456 244 96 122 168
278 457 244 96 124 170
279 457 244 96 130 171
278 458 244 101 131 171
278 459 244 92 127 163
279 458 244 101 135 170
279 459 244 89 125 161
279 460 243 77 110 159
276 460 245 88 125 168
276 461 245 87 121 165
277 460 245 104 138 173
277 461 244 101 133 172
277 461 245 100 135 172
276 462 244 85 111 162
276 463 244 94 118 165
277 462 244 87 120 163
277 463 244 113 136 171
278 460 244 113 141 177
278 461 244 100 133 173
279 460 244 96 123 165
279 461 244 71 108 156
278 462 244 107 137 171
278 463 244 142 160 184
279 462 244 113 138 172
279 463 244 164 177 195
272 456 248 90 105 147
272 457 248 81 98 145
281 448 241 112 131 154
281 449 240 122 136 157
281 449 241 99 120 148
280 448 243 163 166 177
280 449 243 165 168 179
281 448 242 144 152 166
281 449 242 145 154 170
281 450 240 125 142 165
281 450 241 106 126 153
281 451 240 146 156 173
281 451 241 132 147 168
280 450 242 164 168 179
280 450 243 164 167 178
280 451 242 156 162 176
280 451 243 160 164 175
281 450 242 148 157 172
281 451 242 142 152 168
282 448 240 131 143 160
282 448 241 108 128 152
282 449 240 141 150 166
282 450 240 129 144 165
282 451 240 137 150 170
281 452 240 154 161 175
281 452 241 158 164 176
281 453 240 153 160 174
281 453 241 151 158 172
280 452 242 147 154 167
280 452 243 156 162 175
280 453 242 145 155 170
280 453 243 142 153 169
281 452 242 151 158 171
281 453 242 151 159 173
281 454 241 107 129 153
281 455 240 95 119 155
281 455 241 114 134 163
280 454 242 110 128 152
280 454 243 104 123 152
280 455 242 106 126 152
280 455 243 107 125 156
281 454 242 107 126 147
281 455 242 113 132 156
282 452 240 156 163 177
282 453 240 135 147 166
282 454 240 97 123 153
282 455 240 74 105 146
281 456 240 77 107 140
281 456 241 108 127 156
281 457 240 135 150 170
281 457 241 89 115 145
280 456 242 145 158 178
280 456 243 127 147 170
280 457 242 139 155 176
280 457 243 148 164 185
281 456 242 143 155 177
281 457 242 108 131 157
280 458 241 109 133 159
281 458 240 163 169 183
281 458 241 137 151 170
281 459 240 168 171 182
281 459 241 156 165 181
280 458 242 108 135 161
280 458 243 126 150 175
280 459 242 93 122 151
280 459 243 88 120 155
281 458 242 83 118 149
281 459 242 118 138 162
282 456 240 89 115 146
281 460 240 168 173 184
281 460 241 158 167 182
281 461 240 163 169 183
281 461 241 140 154 176
280 460 242 81 108 148
280 460 243 82 106 157
280 461 242 98 120 163
280 461 243 85 112 162
281 460 242 111 128 158
281 461 242 108 128 162
281 462 240 134 147 172
281 462 241 97 119 161
281 463 240 89 111 153
281 463 241 76 102 152
280 462 243 107 132 167
280 463 242 119 141 170
280 463 243 147 163 184
281 462 242 97 119 162
281 463 242 109 132 165
282 463 240 84 113 152
