ply
format ascii 1.0
comment Version 2, Copyright 2017, 8i Labs, Inc.
comment frame_to_world_scale 0.179523
comment frame_to_world_translation -45.2095 7.18301 -54.3561
comment width 1023
element vertex 377
property float x
property float y
property float z
property uchar red
property uchar green
property uchar blue
end_header
273 595 207 64 104 164
275 592 205 143 158 179
275 593 205 116 137 163
274 592 207 84 122 160
274 593 207 81 122 162
275 592 206 117 142 167
275 592 207 95 128 159
275 593 206 99 128 158
275 593 207 93 126 159
275 594 205 73 104 142
275 595 205 76 104 142
274 594 207 66 112 156
274 595 206 62 102 144
274 595 207 69 110 155
275 594 206 68 105 145
275 594 207 75 115 152
275 595 206 65 102 143
273 596 207 60 101 157
273 597 207 58 97 151
273 598 207 30 80 134
273 599 207 17 73 127
275 596 204 79 103 135
275 596 205 72 101 137
275 597 204 79 105 133
275 597 205 72 102 134
274 596 206 64 101 141
274 596 207 69 106 151
274 597 206 72 103 140
274 597 207 70 104 145
275 596 206 63 99 138
275 597 206 70 101 136
275 598 204 98 119 139
275 598 205 90 114 138
275 599 205 100 119 140
274 598 206 70 101 133
274 598 207 57 94 133
274 599 206 69 99 129
274 599 207 50 90 128
275 598 206 76 105 134
275 599 206 77 104 130
276 592 203 71 91 125
276 593 203 74 94 128
277 592 202 53 76 111
277 592 203 55 78 114
277 593 202 71 93 119
277 593 203 67 90 121
276 594 203 77 98 131
276 595 203 82 105 131
277 594 202 68 94 119
277 594 203 70 95 124
277 595 202 77 101 125
277 595 203 75 100 125
278 592 201 82 100 127
278 593 201 78 95 123
279 592 201 94 111 134
279 593 201 70 88 117
278 592 202 67 88 119
278 593 202 79 98 123
278 594 201 63 87 117
278 595 201 71 97 124
279 594 201 35 58 103
279 595 201 41 70 112
278 594 202 74 96 122
278 595 202 79 103 127
276 592 204 106 122 148
276 592 205 144 157 177
276 593 204 93 113 143
276 593 205 116 135 160
276 594 204 88 109 141
276 594 205 81 109 143
276 595 204 92 112 142
276 596 203 92 112 135
276 597 203 105 121 140
277 596 202 99 118 138
277 597 202 122 134 150
276 598 203 116 128 143
276 599 203 116 128 144
277 598 202 129 137 151
277 599 202 116 127 143
277 599 203 119 130 146
278 596 201 88 112 134
278 597 201 106 126 146
279 596 201 55 87 119
279 597 200 29 60 105
279 597 201 60 93 124
278 596 202 99 119 139
278 597 202 114 130 148
278 598 201 103 123 143
278 599 201 84 103 129
279 598 200 24 54 107
279 598 201 54 85 122
279 599 200 25 55 112
279 599 201 43 72 116
278 599 202 92 108 130
276 596 204 88 109 138
276 597 204 93 114 137
276 598 204 105 121 140
276 599 204 112 127 144
273 600 207 42 83 133
273 601 207 36 77 127
275 600 205 93 112 133
275 601 205 86 105 127
274 600 206 76 102 129
274 600 207 56 92 131
274 601 207 57 88 126
275 600 206 83 105 129
275 601 206 80 102 127
274 602 207 59 87 122
275 602 206 82 101 126
275 602 207 72 93 119
275 603 207 65 86 107
276 600 203 109 123 140
277 600 202 87 105 127
277 600 203 96 114 134
277 601 202 71 92 118
277 601 203 72 93 120
278 600 201 53 77 109
279 600 200 40 70 114
279 600 201 41 69 110
279 601 201 54 79 112
278 600 202 70 92 117
278 601 202 52 75 105
278 601 203 61 84 111
279 601 202 51 72 103
279 602 201 83 101 122
278 602 203 72 91 117
279 602 202 83 93 117
279 602 203 91 101 119
279 603 203 93 100 115
276 600 204 99 115 135
276 600 205 94 111 132
276 601 204 81 100 123
276 601 205 81 99 123
277 601 204 78 97 122
276 602 205 74 93 117
277 602 204 82 99 122
277 602 205 74 93 115
277 603 205 71 87 105
276 602 206 75 93 116
276 602 207 72 90 112
276 603 206 65 83 104
276 603 207 62 81 101
277 603 206 60 76 95
277 603 207 53 69 88
278 602 204 88 100 119
278 603 204 84 95 112
278 603 205 72 85 100
279 603 204 87 95 109
279 603 205 70 78 89
278 603 206 61 71 86
276 604 207 61 75 89
277 604 207 67 74 85
279 604 205 67 73 83
278 604 206 56 66 79
278 604 207 66 71 81
278 605 207 85 85 87
279 604 206 63 70 79
279 604 207 64 70 78
279 605 207 83 83 85
281 592 199 168 167 173
281 593 199 145 149 158
281 594 199 73 91 116
281 595 199 32 59 105
282 592 199 167 165 171
282 593 199 138 143 154
283 592 198 129 135 146
283 592 199 156 156 164
283 593 198 126 133 146
282 594 199 105 118 135
282 595 199 100 112 135
283 594 198 147 149 158
283 595 198 159 157 162
283 595 199 152 154 162
281 596 199 24 54 102
281 597 199 32 68 104
281 598 199 56 85 110
281 599 199 107 120 138
282 596 199 78 94 120
282 597 199 63 86 107
283 596 198 153 152 157
283 596 199 137 141 149
283 597 198 143 144 150
283 597 199 121 127 136
282 598 199 103 115 129
282 599 199 143 147 157
283 598 198 147 147 153
283 598 199 139 142 149
283 599 198 151 151 157
283 599 199 155 155 162
287 592 195 127 140 156
287 593 195 119 132 149
287 594 195 86 111 137
287 595 195 86 112 141
284 592 197 129 137 150
284 593 197 146 149 158
285 592 196 149 153 163
285 592 197 142 148 159
285 593 196 153 153 160
285 593 197 152 153 160
284 592 198 112 122 137
284 594 197 151 150 156
284 595 197 146 147 154
285 594 196 146 148 157
285 594 197 149 150 157
285 595 197 130 137 150
284 595 198 153 152 156
286 592 196 151 154 164
286 593 196 149 152 161
286 594 196 132 140 153
286 595 196 100 118 142
287 594 196 111 127 146
287 595 196 83 108 138
284 596 197 130 136 148
284 597 197 116 126 141
285 596 197 101 117 139
285 597 197 86 108 133
284 596 198 146 146 154
284 597 198 137 140 150
284 598 197 123 131 145
284 599 197 134 139 149
285 598 197 100 119 140
285 599 197 115 128 145
284 598 198 137 140 150
284 599 198 142 144 153
286 596 196 74 100 133
286 597 196 68 99 135
286 597 197 64 96 131
287 596 196 78 105 138
287 597 196 77 105 138
286 598 196 64 99 131
286 598 197 79 107 135
286 599 196 74 103 134
286 599 197 95 117 142
287 598 196 74 104 136
287 599 196 63 96 128
280 592 200 139 146 158
280 593 200 104 114 132
281 592 200 160 162 170
281 593 200 132 138 149
280 594 200 33 50 95
280 595 200 29 49 102
281 594 200 51 64 102
281 595 200 24 50 103
280 596 200 27 53 105
280 597 200 22 48 103
281 596 200 21 48 104
281 597 200 33 64 108
280 598 200 18 50 105
280 599 200 31 61 111
281 598 200 35 69 107
281 599 200 72 95 124
281 600 199 121 132 149
282 600 199 149 152 161
282 601 199 137 142 153
283 600 198 147 148 155
283 600 199 153 153 159
283 601 198 140 141 149
283 601 199 144 145 152
282 602 199 122 128 139
283 602 199 122 125 133
284 600 197 132 137 148
284 601 197 127 132 143
285 600 197 114 126 142
285 601 197 106 118 132
284 600 198 141 143 152
284 601 198 127 132 141
284 602 198 105 112 122
284 602 199 91 98 108
285 602 198 88 98 112
285 602 199 74 84 96
285 603 199 61 72 84
286 600 196 81 105 133
286 600 197 92 111 136
286 601 197 84 103 125
287 600 196 63 93 125
287 601 196 59 89 121
287 601 197 71 93 119
286 602 197 79 95 115
287 602 197 75 91 111
286 602 198 69 82 96
286 603 199 56 69 82
287 602 198 71 83 98
287 603 198 67 76 87
287 603 199 53 65 77
280 600 200 46 79 118
280 601 200 77 102 127
280 601 201 80 101 126
281 600 200 89 110 134
281 601 200 101 118 138
280 602 201 106 117 132
281 602 200 96 111 129
281 602 201 103 113 126
281 603 201 98 106 118
280 602 202 106 112 126
280 603 202 104 109 119
280 603 203 99 102 111
281 603 202 96 101 110
281 603 203 88 91 98
282 602 200 95 107 122
282 602 201 88 100 113
282 603 201 83 93 105
283 602 200 91 99 110
283 603 200 66 78 90
283 603 201 59 73 86
282 603 202 73 81 91
282 603 203 81 85 91
283 603 202 60 70 80
280 603 204 85 88 99
281 604 203 82 85 91
282 604 203 72 76 82
283 604 202 59 67 76
283 604 203 63 69 75
280 604 204 80 83 92
280 604 205 69 74 84
281 604 204 76 79 86
281 604 205 63 67 71
280 604 206 62 67 74
280 605 206 64 68 74
280 605 207 80 80 82
281 604 206 64 67 72
281 605 206 66 68 72
281 605 207 86 82 80
282 604 204 65 68 73
282 604 205 66 68 72
283 604 204 65 68 72
283 604 205 66 67 71
283 605 205 75 75 76
282 605 206 74 74 75
282 605 207 86 82 81
283 605 206 86 81 78
283 605 207 98 89 84
282 606 207 103 93 86
283 606 207 107 94 83
284 603 200 66 75 85
284 603 201 57 66 75
285 603 200 54 65 77
285 603 201 52 63 74
284 603 202 60 67 75
286 603 200 49 62 73
286 603 201 46 59 70
287 603 200 46 57 67
287 603 201 44 55 65
284 604 202 67 71 78
284 604 203 69 72 77
285 604 202 56 63 71
285 604 203 62 66 72
286 604 201 47 58 69
287 604 201 39 52 65
286 604 202 47 56 66
286 604 203 56 60 67
287 604 202 48 55 64
287 604 203 58 61 66
284 604 204 71 72 76
284 604 205 78 77 77
284 605 205 80 77 76
285 604 204 69 70 74
285 605 204 74 73 75
285 605 205 84 80 79
284 605 206 93 86 81
285 605 206 97 88 82
284 606 206 104 92 81
284 606 207 114 97 82
285 606 206 107 93 80
285 606 207 120 100 82
286 604 204 65 66 69
286 605 204 77 74 76
286 605 205 89 83 81
287 605 204 81 78 77
287 605 205 97 88 82
286 605 206 100 90 82
287 605 206 105 92 83
286 606 206 109 95 82
286 606 207 121 99 81
286 607 207 128 101 81
287 606 206 115 97 82
287 606 207 126 101 81
287 607 207 130 102 81
