ply
format ascii 1.0
comment Version 2, Copyright 2017, 8i Labs, Inc.
comment frame_to_world_scale 0.179523
comment frame_to_world_translation -45.2095 7.18301 -54.3561
comment width 1023
element vertex 333
property float x
property float y
property float z
property uchar red
property uchar green
property uchar blue
end_header
272 593 80 77 126 172
272 593 81 72 127 174
273 593 81 82 127 165
272 592 82 68 106 137
272 592 83 68 120 154
273 592 82 71 99 124
273 592 83 65 96 119
273 593 82 75 115 150
272 594 80 80 120 159
273 594 80 83 117 151
274 593 80 81 113 142
274 593 81 78 109 135
275 593 81 72 104 128
274 592 82 73 103 127
274 592 83 68 89 106
274 593 82 77 117 146
275 592 83 77 79 94
275 593 82 79 99 117
274 594 80 73 119 155
275 594 80 59 108 140
275 594 81 65 103 132
274 592 84 72 66 87
275 592 84 78 59 79
276 593 81 85 57 106
277 593 81 91 56 88
276 592 83 83 82 109
276 593 82 90 77 117
276 593 83 92 91 122
277 592 83 107 115 129
277 593 82 100 85 115
277 593 83 108 113 130
276 594 80 83 96 118
276 594 81 92 68 105
277 594 80 92 85 94
277 594 81 99 71 90
279 593 81 123 122 126
278 592 83 128 133 142
278 593 82 115 111 119
278 593 83 122 128 138
279 592 83 134 140 151
279 593 82 125 129 138
279 593 83 129 136 146
278 594 80 106 78 78
278 594 81 113 87 91
279 594 80 114 95 95
279 594 81 124 110 110
279 595 80 101 95 98
276 592 84 87 85 98
276 592 85 106 106 107
277 592 84 116 119 126
277 592 85 129 126 127
278 592 84 141 142 147
279 592 84 140 142 150
272 600 80 180 202 231
272 600 81 180 195 217
272 601 81 181 194 214
273 600 80 171 198 231
273 601 81 186 201 225
272 600 82 156 168 187
272 601 82 153 166 185
272 601 83 111 128 149
273 601 82 164 177 198
273 601 83 122 136 156
274 600 80 167 193 225
274 601 80 164 194 232
274 601 81 185 204 230
275 601 80 145 185 234
275 601 81 191 208 232
274 601 82 177 191 212
274 601 83 141 153 170
275 601 82 194 207 228
274 602 83 131 141 157
275 602 82 172 188 212
275 602 83 147 170 199
272 601 84 33 57 98
272 601 85 9 50 89
273 601 84 63 89 113
272 602 85 14 67 108
273 602 84 22 64 94
273 602 85 34 66 114
273 603 85 61 109 144
272 602 86 87 139 183
272 603 86 112 166 207
272 603 87 115 183 228
273 603 86 105 146 180
274 602 84 83 104 141
274 603 85 74 94 134
275 602 84 117 137 169
275 603 84 91 109 151
275 603 85 67 84 127
272 604 86 109 168 217
272 604 87 86 166 221
272 605 87 61 151 211
273 604 86 100 133 179
273 605 87 67 105 163
272 606 87 74 160 220
273 606 87 73 151 205
275 604 85 90 82 111
274 604 86 131 107 146
274 605 86 146 89 140
274 605 87 123 93 143
275 604 86 133 91 125
275 605 86 158 96 138
274 606 87 107 148 195
274 607 87 107 178 225
275 606 86 144 128 169
275 606 87 115 133 179
275 607 87 82 156 209
276 601 80 156 186 227
276 601 81 192 206 229
277 601 80 159 185 220
277 601 81 178 196 225
276 601 82 195 207 228
277 602 81 180 200 231
276 602 82 175 198 234
276 602 83 172 190 220
276 603 83 159 177 203
277 602 82 198 212 237
277 602 83 201 210 229
277 603 83 180 193 214
278 601 80 165 186 215
278 601 81 166 192 227
279 601 80 163 184 213
278 602 81 185 202 228
279 602 81 185 200 223
278 602 82 217 221 235
278 602 83 211 220 235
278 603 83 201 211 226
279 602 82 208 217 233
279 603 83 207 219 235
276 603 84 115 139 166
276 603 85 67 91 129
277 603 84 143 158 178
277 603 85 81 104 137
278 603 84 169 177 191
279 603 84 185 199 219
276 604 85 97 97 126
277 604 85 90 99 143
277 605 85 117 111 152
276 605 86 151 95 129
277 605 86 148 89 121
276 606 86 140 84 137
276 607 87 92 118 168
277 606 86 165 62 104
277 607 87 131 83 126
278 604 84 111 127 154
278 604 85 90 107 148
278 605 85 121 111 143
279 604 84 143 150 179
279 605 85 113 116 148
279 606 85 161 115 144
278 606 86 176 74 91
278 607 86 181 46 76
278 607 87 161 73 117
279 606 86 170 81 113
279 607 86 179 45 93
272 605 88 70 168 224
272 606 88 76 172 229
272 606 89 73 167 227
272 607 89 68 170 224
273 606 88 86 177 230
273 607 88 90 181 232
273 607 89 83 176 227
272 607 90 63 154 211
272 607 91 76 146 198
274 607 88 87 179 230
275 607 88 77 173 227
272 607 92 88 153 203
280 593 81 130 134 143
281 593 81 134 141 153
280 592 83 130 138 152
280 593 82 134 144 158
281 592 83 124 135 150
281 593 82 133 143 158
280 594 80 116 114 119
280 594 81 130 127 133
280 595 80 101 99 103
281 594 80 123 127 135
281 594 81 132 137 147
281 595 80 118 120 128
282 592 83 119 132 148
282 593 82 124 138 155
282 593 83 114 130 148
283 592 83 105 124 143
283 593 82 109 129 149
283 593 83 100 123 145
282 594 80 130 139 152
282 594 81 128 139 154
282 595 80 129 137 150
283 594 81 118 134 152
283 595 80 122 133 147
283 594 82 108 137 165
280 592 84 129 137 150
281 592 84 122 133 146
282 592 84 116 128 145
283 592 84 100 120 141
284 593 82 93 118 142
284 593 83 89 117 142
285 593 82 81 113 140
285 593 83 66 113 148
284 594 81 106 125 144
284 595 80 115 130 147
284 595 81 108 127 146
285 595 80 99 121 143
285 595 81 86 117 145
284 594 82 101 122 144
285 594 82 81 115 143
286 593 83 71 114 147
287 593 83 74 113 145
286 595 81 71 113 144
287 595 81 70 112 144
286 594 82 76 114 145
286 594 83 76 114 146
287 594 82 75 114 146
287 594 83 79 115 145
287 595 82 77 115 145
284 592 84 77 115 145
284 592 85 78 112 140
285 592 84 54 110 147
285 592 85 63 107 139
285 593 84 68 109 141
286 592 84 66 109 142
286 592 85 66 110 143
286 593 84 66 113 148
287 592 85 75 114 144
287 593 84 77 114 145
287 593 85 72 117 151
287 592 86 77 112 142
284 596 80 107 123 141
285 596 80 95 118 139
286 596 80 97 118 138
286 596 81 83 114 141
286 597 80 101 119 139
287 596 80 101 118 138
287 596 81 82 114 140
287 597 80 104 121 139
287 598 80 107 121 137
280 601 80 163 188 219
281 601 80 158 182 213
280 602 80 168 193 222
280 602 81 176 197 224
281 602 80 153 180 216
281 602 81 155 182 216
280 602 82 186 198 219
280 603 82 199 215 238
280 603 83 202 216 238
281 602 82 160 181 210
281 603 82 185 205 234
281 603 83 196 209 236
282 601 80 138 169 208
283 601 80 140 171 209
282 602 80 139 170 209
282 602 81 142 169 205
283 602 80 139 171 210
283 602 81 146 175 212
282 602 82 153 176 207
282 603 82 175 195 226
282 603 83 186 200 231
283 602 82 158 181 214
283 603 82 171 190 220
283 603 83 186 200 229
281 604 83 203 211 235
282 604 83 194 203 233
283 604 83 199 206 231
280 604 84 172 177 201
280 605 85 116 119 151
281 604 84 196 200 223
281 605 84 157 162 192
281 605 85 112 121 160
280 606 85 155 121 147
281 606 85 138 113 149
280 606 86 161 93 126
280 607 86 173 69 107
281 606 86 148 96 138
281 607 86 172 103 136
282 604 84 192 197 224
282 605 84 169 173 202
282 605 85 132 139 178
283 604 84 204 205 226
283 605 84 196 196 216
283 605 85 144 145 179
282 606 85 113 99 148
283 606 85 106 100 145
283 607 85 134 119 142
282 606 86 135 99 146
282 607 86 154 94 125
283 607 86 150 117 139
284 601 80 141 174 213
285 601 80 137 166 205
284 602 80 142 173 212
284 602 81 152 179 215
284 603 81 157 181 215
285 602 80 137 162 198
285 602 81 143 164 203
285 603 81 139 162 211
284 603 82 170 187 217
284 603 83 190 201 228
285 603 82 152 171 216
286 601 80 120 153 195
287 600 80 109 136 166
287 601 80 125 152 187
286 602 80 135 155 188
286 603 81 116 147 205
287 602 80 138 157 187
287 602 81 130 159 208
287 603 81 131 158 210
286 603 82 138 161 210
287 603 82 158 172 209
284 604 83 204 208 230
285 604 83 191 198 228
285 605 83 219 219 235
286 604 82 161 173 214
286 604 83 191 196 226
286 605 83 220 218 235
287 604 82 175 182 219
287 604 83 194 196 225
284 605 84 215 211 225
284 605 85 173 171 193
285 605 84 225 222 233
284 606 85 113 118 149
284 607 85 118 120 145
285 606 85 162 166 186
285 607 85 103 120 147
284 607 86 154 141 164
285 607 86 135 137 163
286 605 84 227 223 234
287 605 84 229 225 236
286 606 84 227 222 231
286 606 85 185 186 203
286 607 85 103 121 149
287 606 84 231 225 235
287 606 85 192 189 205
287 607 85 103 121 149
