ply
format ascii 1.0
comment Version 2, Copyright 2017, 8i Labs, Inc.
comment frame_to_world_scale 0.179523
comment frame_to_world_translation -45.2095 7.18301 -54.3561
comment width 1023
element vertex 299
property float x
property float y
property float z
property uchar red
property uchar green
property uchar blue
end_header
272 496 226 91 109 135
272 496 227 79 100 131
272 497 226 106 123 143
272 497 227 97 114 137
273 496 227 68 94 127
273 497 227 96 113 134
272 498 226 102 117 135
272 498 227 102 118 137
272 499 226 109 121 138
272 499 227 107 120 138
273 498 227 100 117 138
273 499 227 104 120 139
273 496 228 58 88 125
273 497 228 70 97 126
273 498 228 88 108 128
273 499 228 97 115 135
274 496 229 58 83 125
274 497 229 63 91 128
275 496 229 69 85 130
275 496 230 60 85 124
275 496 231 122 137 156
275 497 230 46 79 125
275 497 231 104 123 149
274 498 229 81 103 128
274 499 229 100 117 136
274 498 230 66 88 131
274 499 230 85 106 135
275 498 230 80 98 142
275 498 231 102 119 154
275 499 230 79 101 138
275 499 231 87 106 147
272 500 226 107 119 139
272 500 227 106 120 137
272 501 226 111 124 142
272 501 227 108 121 138
273 500 227 102 118 137
273 501 227 104 120 139
272 502 225 108 121 142
272 503 225 107 122 141
272 502 226 113 125 141
272 502 227 113 126 143
272 503 226 108 122 141
273 502 227 111 125 142
273 503 227 110 124 142
273 500 228 102 119 138
273 501 228 103 119 138
273 502 228 104 120 140
273 503 228 98 117 139
274 500 229 107 122 141
274 501 229 109 123 142
274 500 230 103 118 144
274 501 230 116 129 149
275 500 230 96 112 142
275 500 231 93 112 150
275 501 230 109 123 145
275 501 231 99 118 151
274 502 228 99 116 137
274 502 229 102 117 139
274 503 228 95 114 137
274 503 229 98 115 139
274 503 230 106 121 145
275 502 230 108 124 147
275 502 231 95 113 149
275 503 230 104 120 145
275 503 231 108 123 155
276 496 231 149 159 174
276 497 231 123 140 161
276 498 231 110 127 159
276 499 231 90 108 150
275 503 232 119 135 166
275 501 239 123 133 175
275 502 239 119 128 175
275 503 239 122 132 171
276 496 232 152 164 181
276 496 233 136 151 170
276 497 232 134 150 171
276 497 233 129 147 170
276 497 234 127 145 167
277 496 234 149 159 175
277 496 235 162 167 180
277 497 234 137 152 171
277 497 235 152 162 178
276 498 232 117 136 163
276 498 233 116 136 165
276 499 232 102 121 158
276 499 233 114 132 164
276 498 234 110 131 162
276 499 234 116 134 165
276 499 235 119 135 165
277 498 235 132 150 174
277 499 235 114 135 164
277 496 236 166 168 179
277 496 237 169 171 181
277 497 236 164 168 180
277 497 237 169 172 181
276 497 239 151 162 180
277 496 238 170 173 184
277 496 239 170 175 189
277 497 238 169 173 184
277 497 239 162 169 184
277 498 236 152 164 182
277 498 237 162 170 185
277 499 236 119 140 167
277 499 237 124 143 170
276 498 239 147 159 178
276 499 238 124 141 171
276 499 239 146 161 182
277 498 238 149 160 178
277 498 239 151 161 177
277 499 238 120 138 170
276 500 232 92 112 155
276 500 233 96 114 156
276 501 232 102 119 160
276 501 233 106 122 163
276 500 234 104 121 160
276 500 235 108 125 161
276 501 234 106 121 163
276 501 235 103 118 160
277 500 235 114 131 163
276 502 232 96 113 155
276 502 233 104 120 161
276 503 232 108 124 160
276 503 233 107 123 161
276 502 234 111 124 165
276 502 235 112 125 165
276 503 234 105 120 161
276 503 235 107 120 161
276 501 236 102 117 158
276 501 237 110 124 163
277 500 236 118 134 164
277 500 237 123 139 167
277 501 236 102 118 157
277 501 237 108 124 161
276 500 238 128 143 172
276 500 239 132 147 173
276 501 238 116 129 168
276 501 239 118 131 171
277 500 238 123 139 166
276 502 236 112 124 164
276 502 237 113 126 165
276 503 236 111 124 162
276 503 237 116 128 164
276 502 238 115 126 166
276 502 239 115 126 170
276 503 238 120 131 168
276 503 239 124 135 174
272 504 225 100 118 139
272 505 225 100 118 140
272 504 226 100 117 139
272 505 226 101 118 141
273 504 227 102 118 139
273 505 227 104 118 139
272 506 225 104 120 142
272 506 226 103 119 142
272 506 227 107 120 140
272 507 226 102 117 139
272 507 227 110 121 138
273 506 227 115 125 143
273 507 227 117 127 142
273 504 228 96 116 138
273 505 228 103 120 141
273 506 228 107 122 143
273 507 228 115 127 144
274 504 229 107 123 145
274 505 229 98 118 140
274 504 230 109 126 149
274 505 230 107 125 147
275 504 230 111 127 151
275 504 231 115 131 157
275 505 230 113 128 150
275 505 231 125 139 160
274 506 229 89 110 135
274 507 229 97 113 139
274 506 230 96 116 141
274 507 230 93 113 142
275 506 230 102 118 145
275 506 231 123 135 158
275 507 230 97 115 143
275 507 231 114 128 154
272 508 226 105 121 141
272 508 227 116 125 141
272 509 226 108 123 141
272 509 227 112 124 142
273 508 227 118 126 142
273 509 227 111 122 142
272 510 226 108 121 140
272 510 227 106 119 140
272 511 226 98 112 139
272 511 227 107 120 142
273 510 227 105 117 141
273 508 228 120 129 145
273 509 228 108 119 141
273 510 228 111 123 146
273 511 228 114 125 146
273 511 229 114 126 152
274 508 229 103 116 143
274 509 229 100 115 144
274 508 230 94 113 146
274 509 230 96 112 145
275 508 231 104 122 153
275 509 231 103 119 155
274 510 229 108 123 150
274 511 229 104 117 146
274 510 230 96 112 145
274 510 231 89 105 143
274 511 230 103 116 146
274 511 231 106 117 148
275 510 231 110 122 156
275 511 231 121 131 158
275 504 232 119 137 164
275 505 232 125 143 166
275 506 232 136 149 170
275 506 233 139 153 173
275 507 232 138 149 169
275 507 233 156 165 181
275 507 234 168 174 187
273 505 239 130 154 180
272 507 239 183 192 208
273 506 239 149 166 188
273 507 239 180 188 204
274 504 239 124 139 177
274 505 239 126 149 174
275 504 239 119 130 172
275 505 238 125 144 176
275 505 239 135 151 183
275 507 236 170 176 190
275 507 237 148 162 180
274 506 239 141 158 180
274 507 238 156 169 188
274 507 239 167 178 196
275 506 238 122 144 171
275 506 239 137 154 175
275 507 238 139 156 177
275 508 232 138 149 171
275 508 233 163 170 184
275 509 232 138 149 173
275 509 233 164 170 185
275 508 234 171 175 187
275 508 235 173 176 187
275 509 234 172 176 188
275 509 235 173 175 186
275 510 232 146 155 176
275 510 233 168 173 187
275 511 232 139 150 171
275 511 233 161 169 184
275 510 234 173 177 189
275 510 235 171 175 187
275 511 234 173 178 191
275 511 235 173 179 192
272 508 239 177 184 199
272 509 239 157 168 185
273 508 239 178 185 199
273 509 238 139 158 181
273 509 239 143 158 181
272 510 239 151 167 190
272 511 238 119 142 179
272 511 239 129 152 183
273 510 238 143 162 188
273 511 238 136 155 188
275 508 236 172 176 187
275 508 237 171 178 192
275 509 236 175 177 187
275 509 237 176 179 191
274 508 238 143 159 181
274 508 239 166 177 196
274 509 238 159 171 190
275 508 238 151 165 185
274 510 237 178 181 192
274 511 237 173 181 196
275 510 236 175 177 187
275 510 237 181 180 189
275 511 236 173 179 194
275 511 237 177 182 195
274 510 238 171 180 197
274 511 238 169 180 197
276 504 232 120 138 165
276 504 233 122 140 168
276 505 233 115 136 161
276 504 234 120 138 168
276 504 235 117 133 167
276 505 234 115 137 163
276 505 235 118 139 167
276 506 233 138 152 172
276 506 234 139 154 174
276 506 235 135 152 174
276 507 234 164 172 186
276 507 235 165 173 188
276 504 236 115 129 167
276 504 237 115 128 168
276 505 236 120 140 171
276 505 237 126 143 177
276 504 238 114 125 168
276 505 238 130 143 181
276 506 236 122 144 168
276 506 237 115 139 167
276 507 236 158 169 186
276 507 237 139 157 178
276 508 235 173 176 187
276 508 236 174 177 188
