ply
format ascii 1.0
comment Version 2, Copyright 2017, 8i Labs, Inc.
comment frame_to_world_scale 0.179523
comment frame_to_world_translation -45.2095 7.18301 -54.3561
comment width 1023
element vertex 206
property float x
property float y
property float z
property uchar red
property uchar green
property uchar blue
end_header
288 304 133 104 113 125
288 305 133 99 109 121
288 304 134 100 107 116
288 304 135 97 104 114
288 305 134 96 102 111
288 305 135 97 104 114
289 304 135 99 107 117
289 305 135 104 112 122
288 306 134 97 104 114
288 306 135 100 108 118
288 307 134 95 101 110
288 307 135 98 107 119
289 306 135 105 112 123
288 308 134 96 103 113
288 308 135 96 106 119
288 309 134 100 108 119
288 309 135 97 107 121
288 310 134 102 110 122
288 310 135 97 108 122
288 311 134 98 108 120
288 311 135 96 108 122
289 304 136 111 119 130
289 305 136 107 116 130
289 306 136 103 115 130
289 306 137 102 114 129
289 307 136 99 111 125
289 307 137 110 117 128
290 304 137 103 117 134
290 305 137 102 116 132
290 304 138 111 122 137
290 305 138 115 125 139
291 304 139 135 137 145
291 305 139 131 134 142
290 306 137 105 117 131
290 307 137 113 120 132
290 306 138 116 124 135
290 306 139 122 128 139
290 307 138 121 125 134
290 307 139 128 131 139
291 306 139 134 136 144
291 307 139 136 138 145
291 304 140 151 149 152
291 304 141 156 153 156
291 305 140 151 148 150
291 306 140 148 147 152
291 306 141 151 149 153
291 307 140 142 142 149
291 307 141 142 142 147
291 307 142 140 140 146
288 309 136 88 104 122
289 308 136 96 109 123
289 308 137 114 120 130
289 309 136 98 111 126
289 309 137 119 124 133
289 309 138 128 130 137
289 310 136 95 110 126
289 310 137 114 120 130
289 311 136 97 111 126
289 311 137 114 120 131
289 310 138 127 128 134
290 308 138 127 129 137
290 308 139 137 137 143
290 309 138 135 135 141
290 309 139 140 139 144
291 308 139 142 141 147
291 309 139 140 139 144
290 311 137 125 127 133
290 310 138 136 136 140
290 310 139 138 138 144
290 311 138 134 134 140
290 311 139 137 137 143
291 310 139 137 137 142
291 311 139 133 135 142
291 308 140 136 136 142
291 308 141 133 133 139
291 309 140 137 136 140
291 309 141 141 139 142
291 308 142 139 139 144
291 309 142 147 145 149
291 310 140 142 141 144
291 310 141 147 145 149
291 311 140 139 139 144
291 311 141 145 144 148
291 310 142 152 150 153
291 311 142 150 148 153
292 304 141 156 153 156
292 305 141 156 153 155
292 304 142 149 147 152
292 304 143 137 138 145
292 305 142 156 154 158
292 305 143 154 153 159
292 306 141 155 152 156
292 306 142 154 152 156
292 306 143 159 157 162
292 307 142 144 144 149
292 307 143 154 152 157
292 308 142 145 145 151
292 308 143 151 150 156
292 309 142 150 149 153
292 309 143 149 149 154
292 310 142 153 151 155
292 310 143 147 147 152
292 311 142 152 150 153
292 311 143 154 152 155
288 312 134 100 110 124
288 312 135 98 108 122
288 313 134 99 111 126
288 313 135 97 108 122
288 314 134 96 109 124
288 314 135 97 108 122
288 315 134 95 110 126
288 315 135 95 108 122
288 316 135 93 107 123
288 317 135 95 108 124
288 318 135 93 106 122
288 319 135 89 103 119
289 312 136 101 111 125
289 312 137 119 126 137
289 313 136 107 115 127
289 313 137 123 128 138
288 314 136 109 116 127
288 315 136 106 113 125
289 314 136 115 121 131
289 314 137 123 128 138
289 315 136 114 119 129
289 315 137 123 127 136
290 312 137 128 130 138
290 313 137 129 132 140
290 312 138 135 135 140
290 312 139 135 135 141
290 313 138 130 130 135
290 313 139 128 127 132
291 312 139 127 128 135
291 313 139 125 125 130
290 314 137 125 128 137
290 315 137 126 129 138
290 314 138 123 125 131
290 314 139 125 125 129
290 315 138 124 126 132
290 315 139 129 127 130
291 314 139 127 126 129
291 315 139 132 129 132
291 312 140 131 132 137
291 312 141 142 140 144
291 313 140 132 131 136
291 313 141 142 139 143
291 312 142 151 149 152
291 314 140 133 132 136
291 314 141 134 133 137
291 315 140 131 130 133
291 315 141 129 126 129
288 316 136 107 115 127
288 317 136 106 114 126
289 316 136 116 121 131
289 316 137 121 125 133
289 317 136 113 119 129
289 317 137 115 119 128
288 318 136 102 111 122
288 319 136 97 107 120
289 318 136 107 113 122
289 318 137 110 115 124
289 319 136 100 109 121
289 319 137 106 112 122
290 316 138 125 126 131
290 316 139 126 126 130
290 317 138 123 125 131
290 317 139 123 124 129
291 316 139 126 124 127
291 317 139 124 124 127
290 318 138 120 122 127
290 318 139 126 125 129
290 319 138 121 121 126
290 319 139 123 120 122
291 318 139 126 126 129
291 316 140 130 127 130
291 316 141 127 121 122
291 317 140 126 123 124
291 317 141 119 110 109
291 318 140 121 117 117
291 318 141 111 99 96
291 319 140 102 94 92
291 319 141 96 80 80
292 312 141 150 147 150
292 313 141 146 143 146
292 312 142 155 151 154
292 312 143 158 154 156
292 313 142 150 146 147
292 313 143 154 148 147
292 314 141 137 135 137
292 315 141 130 125 127
292 314 142 139 134 135
292 314 143 143 134 133
292 315 142 129 121 121
292 315 143 126 111 109
292 316 141 125 117 118
292 317 141 115 102 100
292 316 142 119 105 104
292 316 143 117 95 94
292 317 142 107 83 83
292 317 143 107 73 80
292 318 141 95 74 73
292 319 141 89 71 76
292 318 142 92 69 74
292 318 143 95 68 81
292 319 142 87 78 87
292 319 143 88 91 106
