ply
format ascii 1.0
comment Version 2, Copyright 2017, 8i Labs, Inc.
comment frame_to_world_scale 0.179523
comment frame_to_world_translation -45.2095 7.18301 -54.3561
comment width 1023
element vertex 115
property float x
property float y
property float z
property uchar red
property uchar green
property uchar blue
end_header
288 256 119 129 53 54
288 256 120 130 53 56
288 256 121 128 49 57
288 257 120 121 45 46
288 257 121 121 40 50
289 256 121 128 49 61
289 256 122 125 47 67
289 256 123 122 54 78
289 257 122 121 42 51
289 257 123 121 42 62
288 258 120 118 28 45
288 258 121 120 18 55
288 259 121 123 11 62
288 258 122 119 16 52
288 259 122 122 17 63
288 259 123 123 22 65
289 258 122 118 21 49
289 258 123 120 16 51
289 259 123 124 17 65
290 256 123 113 54 80
289 257 124 121 36 59
289 258 124 122 13 56
289 259 124 125 8 65
289 259 125 123 21 68
290 256 124 108 57 81
290 256 125 96 62 85
290 257 124 120 46 68
290 257 125 114 43 71
290 256 126 98 66 91
290 257 126 110 42 72
291 256 126 90 60 89
291 256 127 88 58 90
291 257 127 111 37 67
290 258 124 121 24 54
290 258 125 121 18 57
290 259 125 122 23 63
290 258 126 119 21 57
290 258 127 119 25 58
290 259 126 121 31 62
290 259 127 118 31 63
291 258 127 118 22 57
291 259 127 119 27 59
288 260 121 120 29 65
288 260 122 116 41 67
288 260 123 119 47 72
288 261 122 108 72 80
288 261 123 108 79 87
289 260 123 120 43 75
288 262 122 109 85 99
288 262 123 108 82 98
288 263 123 115 43 78
288 261 124 108 93 100
289 260 124 118 42 75
289 260 125 118 52 80
289 261 124 110 83 92
289 261 125 108 83 93
288 262 124 106 84 99
288 263 124 114 37 73
289 262 124 104 81 96
289 262 125 105 80 94
289 263 124 107 57 82
289 263 125 112 44 75
289 262 126 106 84 96
289 263 126 113 51 75
290 260 125 118 49 78
290 260 126 116 60 80
290 260 127 114 65 83
290 261 126 101 79 90
290 261 127 107 87 97
290 262 126 103 82 94
290 262 127 99 74 89
290 263 126 112 51 76
290 263 127 110 51 73
288 264 123 123 16 67
288 265 123 127 39 70
288 266 123 130 85 78
288 267 123 141 118 94
288 264 124 124 21 69
288 265 124 125 41 71
289 264 125 122 23 66
289 265 125 122 49 71
289 264 126 120 32 62
289 265 126 120 59 76
288 266 124 131 93 81
288 266 125 133 97 86
288 267 124 143 121 98
288 267 125 144 123 102
289 266 125 131 98 87
289 267 125 144 124 104
289 266 126 129 97 90
289 266 127 126 97 95
289 267 126 145 125 109
289 267 127 138 120 110
290 264 126 119 23 62
290 264 127 118 31 68
290 265 127 119 58 80
290 266 127 125 100 101
290 267 127 134 118 108
288 268 123 143 123 98
288 268 124 145 125 101
288 268 125 147 128 107
288 269 124 154 133 111
288 269 125 154 136 118
288 269 126 152 135 119
289 268 126 147 131 113
289 268 127 147 131 117
289 269 127 151 134 118
288 270 125 157 137 119
288 271 125 156 136 117
288 270 126 152 133 116
288 270 127 150 131 112
288 271 126 152 133 115
288 271 127 148 129 108
289 270 127 147 130 112
290 268 127 141 130 119
