ply
format ascii 1.0
comment Version 2, Copyright 2017, 8i Labs, Inc.
comment frame_to_world_scale 0.179523
comment frame_to_world_translation -45.2095 7.18301 -54.3561
comment width 1023
element vertex 167
property float x
property float y
property float z
property uchar red
property uchar green
property uchar blue
end_header
288 333 96 82 91 104
288 333 97 87 95 106
288 334 96 81 91 104
288 334 97 82 92 105
288 335 96 83 93 106
288 335 97 87 96 108
288 334 98 87 96 107
288 334 99 87 97 109
288 335 98 89 97 109
288 335 99 88 97 109
288 334 100 92 100 112
288 334 101 96 103 114
288 335 100 86 97 111
288 335 101 84 96 111
288 334 102 99 106 117
288 334 103 103 109 119
288 335 102 83 96 111
288 335 103 86 99 113
295 335 96 82 67 74
288 334 104 102 108 117
288 335 104 92 102 116
288 335 105 95 103 114
288 335 106 94 101 112
299 320 96 90 81 75
299 321 96 86 74 65
298 322 96 82 71 67
298 323 96 83 68 66
299 322 96 84 73 71
299 323 96 86 74 76
297 324 96 83 58 56
297 325 96 82 54 55
297 326 96 79 50 57
297 327 96 75 50 57
298 324 96 84 67 66
298 325 96 85 66 66
299 324 96 86 73 76
299 325 96 87 68 70
299 325 97 87 68 73
298 326 96 83 61 64
298 327 96 81 56 63
298 327 97 84 57 64
299 326 96 85 69 73
299 326 97 86 69 73
299 327 97 86 66 70
300 320 96 94 80 68
300 321 96 90 77 70
301 320 96 103 79 62
301 321 96 95 74 66
301 321 97 98 74 65
300 322 96 86 74 71
300 323 96 85 75 77
300 323 97 87 73 73
301 322 96 92 73 67
301 322 97 92 70 65
301 323 97 89 66 65
302 320 97 108 78 60
302 321 97 103 74 62
303 320 97 117 83 61
303 321 97 109 77 61
302 322 97 96 64 59
302 323 97 94 59 63
303 322 97 100 64 60
303 323 97 98 59 64
300 324 96 86 75 79
300 324 97 87 74 78
300 325 97 87 71 76
301 324 97 89 66 68
301 325 97 91 64 69
300 326 97 87 69 75
300 327 97 87 69 75
301 326 97 91 65 72
301 326 98 93 64 71
301 327 98 89 67 73
302 324 97 92 57 63
302 325 97 94 55 63
303 324 97 98 55 63
303 325 97 100 53 64
303 325 98 102 55 67
302 326 98 99 57 66
302 327 98 95 58 66
303 326 98 101 56 66
303 327 98 98 53 63
297 328 96 73 51 62
297 329 96 71 56 66
296 330 96 73 63 68
296 331 96 82 69 71
297 330 96 75 66 72
297 331 96 78 69 73
298 328 96 76 51 61
298 328 97 79 57 62
298 329 96 75 54 66
298 329 97 77 57 66
299 328 97 82 64 68
299 329 97 81 63 68
298 330 96 71 55 68
298 330 97 75 60 72
298 331 97 77 69 78
299 330 97 82 63 70
299 331 97 81 62 69
299 331 98 84 66 71
296 332 96 85 67 67
296 333 96 82 61 65
297 332 96 75 66 73
297 333 96 79 68 72
297 333 97 74 64 72
296 334 96 77 57 67
296 335 96 78 57 66
297 334 96 85 71 73
297 334 97 78 67 73
297 335 96 77 54 66
297 335 97 80 66 72
298 332 97 78 68 73
298 333 97 77 70 76
299 332 97 82 65 69
299 333 97 81 65 71
299 332 98 85 65 70
299 333 98 86 69 72
298 334 97 79 71 76
298 335 97 78 67 72
299 334 97 80 64 74
298 335 98 79 69 74
299 334 98 82 67 70
299 335 98 80 73 80
300 328 97 89 63 68
300 329 97 88 68 71
300 328 98 87 70 75
300 329 98 88 70 73
301 328 98 89 66 74
301 329 98 88 68 74
300 330 98 88 70 75
300 331 98 85 65 72
301 330 98 86 65 71
301 331 98 85 66 73
301 331 99 85 65 72
302 328 98 94 58 67
302 329 98 91 59 69
302 329 99 92 54 66
303 328 98 97 52 62
303 329 99 96 51 61
302 330 98 88 58 69
302 330 99 89 57 68
302 331 99 87 59 69
303 330 99 94 50 63
303 331 99 92 51 63
303 331 100 93 50 62
300 332 98 84 67 74
300 333 98 84 68 77
300 333 99 86 69 78
301 332 99 85 67 74
301 333 99 85 70 75
300 334 98 84 71 78
300 334 99 86 70 77
300 335 98 83 71 75
300 335 99 83 70 75
301 334 99 85 67 70
301 335 99 83 68 71
302 332 99 85 62 68
302 333 99 84 66 70
302 334 99 84 66 70
302 332 100 85 58 64
302 333 100 86 63 68
303 332 100 90 54 62
303 333 100 90 57 64
302 334 100 85 65 69
302 335 100 86 67 72
303 334 100 91 60 67
303 335 100 90 62 69
