ply
format ascii 1.0
comment Version 2, Copyright 2017, 8i Labs, Inc.
comment frame_to_world_scale 0.179523
comment frame_to_world_translation -45.2095 7.18301 -54.3561
comment width 1023
element vertex 227
property float x
property float y
property float z
property uchar red
property uchar green
property uchar blue
end_header
295 544 191 163 172 187
295 545 191 142 154 175
295 546 191 112 132 159
295 547 191 125 144 167
295 548 191 161 172 188
295 550 191 63 100 157
295 551 191 41 83 156
295 552 191 55 90 162
295 553 191 76 108 164
295 554 191 85 118 165
295 555 191 89 120 166
295 556 191 93 126 165
295 557 191 160 173 192
295 558 190 170 178 193
295 558 191 180 186 198
295 559 190 125 142 167
295 559 191 154 166 185
303 544 183 103 126 157
303 545 183 117 136 158
303 546 183 152 159 172
303 547 182 153 155 163
303 547 183 174 172 176
303 548 182 169 165 168
303 548 183 176 171 172
303 549 182 169 166 169
303 549 183 176 170 172
303 550 182 156 157 166
303 550 183 166 165 171
303 551 182 128 137 152
303 551 183 136 143 158
299 544 187 182 183 191
299 545 187 161 171 188
299 546 187 118 139 171
299 547 187 99 126 166
296 544 191 137 152 178
296 545 191 120 139 166
297 544 190 99 126 165
297 545 190 82 115 155
296 546 191 112 135 162
296 547 191 149 163 182
297 546 190 124 146 173
297 547 190 171 180 194
298 544 189 137 155 179
298 545 189 100 129 162
299 544 188 173 178 191
299 545 188 141 156 179
298 544 190 101 129 167
298 545 190 79 115 156
298 546 189 101 128 163
298 547 188 95 124 163
298 547 189 134 151 177
299 546 188 99 126 164
299 547 188 87 117 161
299 548 187 92 122 167
299 549 187 68 102 159
299 550 187 72 109 156
299 551 186 159 170 187
299 551 187 143 161 184
297 549 189 77 111 159
296 548 190 181 185 196
296 548 191 175 182 194
296 549 190 147 163 185
296 549 191 146 164 185
297 548 190 178 184 195
297 549 190 127 147 176
297 550 189 61 99 161
297 551 189 72 103 168
296 550 190 75 108 161
296 550 191 87 119 162
296 551 190 50 85 161
296 551 191 39 81 156
297 550 190 67 104 160
297 551 190 48 87 161
298 548 188 105 131 169
298 548 189 144 160 183
298 549 188 81 114 166
298 549 189 91 122 164
299 548 188 93 122 168
299 549 188 74 108 165
298 550 188 77 115 166
298 550 189 69 108 165
298 551 188 110 138 175
298 551 189 83 116 170
299 550 188 67 107 162
301 544 185 100 124 159
301 545 185 102 128 162
300 544 186 163 169 182
300 544 187 181 182 190
300 545 186 129 147 170
300 545 187 162 172 188
301 544 186 121 139 164
301 545 186 103 129 161
301 546 185 106 131 160
301 547 185 135 150 170
300 546 186 114 137 169
300 546 187 121 142 172
300 547 186 99 126 163
301 546 186 104 130 164
301 547 186 97 125 158
302 544 184 97 121 158
302 544 185 93 117 160
302 545 184 106 130 159
302 545 185 98 123 161
303 544 184 99 125 155
302 546 184 145 156 173
302 547 184 174 175 183
301 548 185 162 169 182
301 549 185 157 163 175
300 548 186 100 127 163
300 549 186 98 123 160
301 548 186 111 134 161
300 551 185 113 129 153
301 550 185 126 139 157
301 551 185 95 111 140
300 550 186 82 112 149
300 551 186 119 138 162
302 548 184 180 176 179
302 549 184 176 173 178
302 550 184 152 156 165
302 551 184 106 117 141
303 552 183 78 102 135
303 553 183 90 114 143
303 554 183 97 119 143
303 555 183 96 114 137
298 552 187 162 173 191
298 553 187 140 156 176
299 552 186 180 183 194
299 552 187 171 180 194
299 553 186 167 173 186
299 553 187 152 161 178
298 554 187 148 162 182
298 555 187 162 172 190
299 554 186 145 155 172
299 554 187 135 146 168
299 555 186 128 139 164
296 553 189 124 152 182
297 552 189 89 118 171
297 553 188 137 159 183
297 553 189 110 140 177
296 552 190 62 94 165
296 552 191 56 90 163
296 553 190 83 117 167
296 553 191 75 109 164
296 554 189 130 156 184
296 555 189 94 125 164
297 554 188 165 180 199
297 554 189 162 179 200
297 555 188 171 184 203
297 555 189 131 153 180
296 554 190 99 132 170
296 554 191 83 117 163
296 555 190 84 118 163
298 552 188 136 157 184
298 553 188 130 152 177
298 554 188 158 172 191
298 555 188 176 187 204
297 559 187 152 167 187
298 556 187 165 177 195
298 557 186 151 162 181
298 557 187 137 154 177
299 556 186 126 137 166
299 557 186 111 125 157
299 558 185 113 128 151
299 559 185 141 150 165
298 558 186 146 157 175
298 558 187 159 172 192
298 559 186 137 148 165
298 559 187 140 154 175
299 558 186 116 131 153
299 559 186 138 148 163
296 556 189 68 104 151
296 557 189 112 133 166
297 556 188 141 160 184
297 556 189 90 120 159
297 557 188 92 122 157
297 557 189 79 109 150
296 556 190 78 113 156
296 557 190 151 166 187
296 558 189 110 132 162
296 559 189 94 122 154
297 558 188 121 144 172
297 558 189 82 114 150
297 559 188 153 169 192
297 559 189 109 134 162
296 558 190 153 165 184
296 559 190 98 122 153
300 552 185 139 148 162
300 553 185 152 157 168
301 552 185 81 96 130
301 553 184 64 82 123
301 553 185 96 109 136
300 552 186 173 177 187
300 553 186 172 175 185
300 554 185 147 156 170
300 555 185 103 119 149
301 554 184 71 97 132
301 554 185 97 117 142
301 555 184 81 109 140
301 555 185 82 107 140
300 554 186 150 158 173
300 555 186 115 128 155
302 552 184 61 81 125
302 553 184 48 75 124
303 553 184 79 107 140
302 554 184 71 101 135
302 555 184 101 123 147
303 554 184 94 116 143
303 555 184 103 121 144
300 556 185 67 87 136
300 557 185 64 89 136
301 556 184 98 122 149
301 556 185 75 102 140
301 557 184 96 119 149
300 558 184 66 95 135
300 558 185 91 112 144
300 559 184 45 74 124
300 559 185 95 111 141
301 558 184 84 107 143
301 559 184 65 88 135
302 556 184 112 131 152
302 557 184 108 127 149
303 556 184 103 120 139
303 557 184 98 115 134
302 558 184 96 118 144
302 559 184 82 106 139
303 558 184 108 123 141
303 559 184 104 120 141
