ply
format ascii 1.0
comment Version 2, Copyright 2017, 8i Labs, Inc.
comment frame_to_world_scale 0.179523
comment frame_to_world_translation -45.2095 7.18301 -54.3561
comment width 1023
element vertex 105
property float x
property float y
property float z
property uchar red
property uchar green
property uchar blue
end_header
289 787 163 205 147 119
290 787 163 205 146 120
291 786 163 206 147 121
291 787 162 205 147 120
291 787 163 205 147 121
289 785 165 206 149 122
288 784 166 204 146 121
288 784 167 203 145 120
288 785 166 205 148 123
289 784 166 202 144 117
289 785 166 206 148 122
288 786 165 206 149 124
288 787 164 206 149 123
288 787 165 206 147 122
289 786 164 207 151 123
289 786 165 207 151 124
289 787 164 206 149 122
288 786 166 205 147 123
290 784 165 205 147 121
290 785 164 205 146 120
290 785 165 205 147 119
291 784 164 205 147 123
291 784 165 205 148 122
291 785 164 205 146 121
290 784 166 203 144 118
290 786 164 206 148 122
290 787 164 207 149 123
291 786 164 206 146 121
288 788 163 205 147 121
288 789 163 206 147 123
289 788 163 205 147 120
289 789 162 205 146 121
289 789 163 205 146 120
288 791 161 202 145 120
289 790 161 202 146 120
289 791 160 203 146 120
289 791 161 203 146 121
288 790 162 205 147 122
288 790 163 206 148 125
288 791 162 205 146 123
289 790 162 203 146 121
290 789 161 204 146 121
291 788 161 205 148 121
291 789 161 204 148 122
290 788 162 205 147 121
290 788 163 204 146 118
290 789 162 204 147 122
291 788 162 205 147 121
290 790 161 204 148 123
290 791 160 203 147 121
290 791 161 204 148 122
291 790 160 204 148 122
291 790 161 205 149 124
291 791 160 204 148 121
288 788 164 206 147 123
288 789 164 206 147 125
292 784 163 204 146 120
292 785 163 205 146 120
293 784 163 204 146 119
293 785 162 205 147 120
293 785 163 205 147 120
292 787 161 204 148 119
293 786 161 204 147 118
293 787 161 204 146 117
292 786 162 205 147 119
292 786 163 205 146 119
292 787 162 205 147 120
292 787 163 205 147 120
293 786 162 206 148 121
294 785 161 203 146 117
295 784 161 203 148 118
295 785 161 202 145 115
294 784 162 202 144 116
294 784 163 201 143 115
294 785 162 203 146 118
295 784 162 203 147 118
294 786 161 203 145 116
294 787 160 202 144 114
294 787 161 202 144 114
295 786 160 202 146 116
295 786 161 202 146 115
295 787 160 202 147 117
292 784 164 204 146 121
292 785 164 204 145 120
292 788 160 204 147 117
292 788 161 204 148 118
292 789 160 203 147 119
292 789 161 204 148 120
293 788 160 203 145 115
293 789 160 202 145 115
292 790 160 204 147 121
294 788 160 203 147 116
288 792 160 203 146 122
288 792 161 203 144 120
288 793 160 203 146 122
289 792 160 203 146 121
289 793 160 202 146 121
290 792 160 202 146 120
296 784 161 201 146 115
296 785 160 201 145 116
296 785 161 201 146 115
297 784 160 201 144 114
297 785 160 200 144 114
296 786 160 202 146 117
298 784 160 202 146 115
