ply
format ascii 1.0
comment Version 2, Copyright 2017, 8i Labs, Inc.
comment frame_to_world_scale 0.179523
comment frame_to_world_translation -45.2095 7.18301 -54.3561
comment width 1023
element vertex 231
property float x
property float y
property float z
property uchar red
property uchar green
property uchar blue
end_header
288 800 87 174 119 77
288 800 88 173 121 77
288 801 88 181 125 84
289 800 88 175 121 79
289 801 88 182 126 85
289 801 89 187 128 84
288 802 88 189 130 87
288 802 89 197 134 92
288 803 88 198 134 91
288 803 89 206 139 97
289 802 89 196 134 90
289 803 89 206 138 97
290 800 88 173 118 82
290 800 89 178 120 82
290 801 89 185 124 82
291 800 88 172 120 82
291 800 89 177 124 80
291 801 89 186 125 79
291 801 90 192 131 85
290 802 89 196 132 89
290 803 89 207 138 97
291 802 89 194 131 87
290 803 90 209 140 99
291 802 90 198 134 90
291 803 90 206 138 97
288 804 89 212 142 101
289 804 89 211 141 99
288 804 90 214 144 104
288 805 90 217 145 104
289 804 90 213 143 101
289 805 90 216 146 105
288 806 90 220 151 110
288 807 90 222 153 112
288 807 91 223 155 112
289 806 90 219 150 108
289 806 91 220 152 109
289 807 91 223 155 111
290 804 90 212 143 102
290 805 90 215 145 103
290 805 91 216 146 104
291 804 90 209 142 100
291 804 91 210 143 101
291 805 91 213 145 104
290 806 91 219 150 107
290 807 91 221 153 110
291 806 91 216 148 106
291 807 91 218 151 110
291 807 92 219 152 110
292 800 89 178 124 82
292 800 90 183 125 85
292 801 90 190 129 86
293 800 90 182 123 85
293 801 90 190 129 89
293 801 91 190 129 90
292 802 90 199 135 92
292 802 91 203 137 94
292 803 90 203 137 96
292 803 91 199 136 95
293 802 91 196 134 94
293 803 91 200 138 98
294 800 90 182 125 85
294 800 91 183 125 83
294 801 91 192 130 88
295 800 91 182 125 82
295 801 91 191 130 89
294 802 91 193 132 92
294 803 91 196 135 95
295 802 91 190 130 90
294 803 92 193 135 97
295 802 92 196 134 94
295 803 92 193 134 95
292 804 91 201 139 97
292 805 91 204 141 100
293 804 91 198 138 98
292 806 91 210 145 103
292 805 92 202 141 100
293 804 92 197 138 98
293 805 92 200 141 100
292 806 92 208 145 104
292 807 92 212 148 108
293 806 92 202 142 103
293 806 93 204 143 105
293 807 92 209 147 108
293 807 93 206 145 107
294 804 92 194 137 98
294 805 92 195 138 98
294 805 93 196 138 100
295 804 92 194 136 97
295 804 93 192 136 98
295 805 93 201 140 102
294 806 93 202 142 105
294 807 93 203 142 105
295 806 93 198 139 103
294 807 94 200 141 104
295 806 94 196 138 102
295 807 94 197 139 102
288 808 91 225 157 114
289 808 91 224 155 112
290 808 91 224 155 113
288 809 92 227 158 116
289 808 92 225 156 113
289 809 92 227 157 114
288 810 92 229 160 118
288 811 93 230 161 119
289 810 92 228 158 116
289 810 93 229 159 117
289 811 93 229 160 119
290 808 92 224 155 114
290 809 92 226 156 115
291 808 92 222 154 112
291 809 92 223 155 114
291 809 93 221 154 114
290 810 93 226 157 116
290 811 93 225 157 116
291 810 93 221 155 116
290 811 94 224 158 117
291 810 94 219 155 116
291 811 94 220 156 117
288 812 93 231 161 120
288 812 94 232 163 122
288 813 94 230 162 123
288 813 95 230 163 124
289 812 94 228 160 121
289 813 95 223 158 119
288 814 95 231 164 125
288 815 95 227 161 122
289 814 95 221 156 116
290 812 94 224 158 119
290 812 95 220 156 118
290 813 95 217 154 116
291 812 94 220 156 118
291 812 95 218 156 119
291 813 95 214 153 116
292 808 92 215 149 109
292 808 93 213 149 110
292 809 93 217 151 112
293 808 93 210 148 110
292 809 94 217 152 114
293 808 94 209 147 110
293 809 94 213 150 113
292 810 94 216 153 115
292 811 94 215 154 116
292 811 95 213 153 115
293 810 94 213 152 115
293 810 95 211 152 116
293 811 95 212 153 117
294 808 94 206 145 109
294 809 94 209 147 112
294 809 95 207 148 113
295 808 94 203 142 107
295 808 95 202 142 107
295 809 95 205 148 112
294 810 95 210 151 115
294 811 95 211 153 116
295 810 95 206 150 113
292 812 95 215 154 117
296 800 91 185 128 85
296 801 91 189 130 90
297 800 91 182 128 85
296 801 92 187 130 92
297 800 92 183 128 89
297 801 92 191 132 93
296 802 92 194 134 94
296 803 92 191 133 95
296 803 93 194 135 98
297 802 92 189 132 93
297 802 93 184 130 93
297 803 92 188 132 94
297 803 93 187 132 95
298 800 92 180 126 86
298 801 92 186 129 91
299 800 92 178 124 86
299 801 92 181 126 88
299 801 93 181 127 88
298 802 92 184 128 89
298 802 93 188 131 94
298 803 93 184 130 93
299 802 93 181 128 89
298 803 94 183 129 92
299 802 94 180 128 91
299 803 94 181 129 92
296 804 93 193 136 98
296 805 93 192 136 99
297 804 93 191 135 98
296 805 94 198 140 101
297 804 94 190 135 98
297 805 94 192 136 99
296 806 94 192 136 100
296 807 94 195 138 101
296 807 95 200 141 105
297 806 94 195 138 100
297 806 95 194 139 100
297 807 95 196 140 103
298 804 93 186 132 94
298 804 94 186 132 95
298 805 94 188 134 97
298 805 95 189 135 98
299 804 94 183 130 93
299 804 95 185 131 94
299 805 95 187 133 96
298 806 95 192 138 99
298 807 95 196 140 103
299 806 95 192 138 99
300 800 92 178 124 86
300 800 93 181 126 88
300 801 93 179 127 87
301 800 93 177 125 87
301 801 93 178 126 87
301 801 94 184 130 91
300 802 93 179 127 87
300 802 94 179 127 90
300 803 94 181 128 91
300 803 95 182 129 92
301 802 94 179 127 89
301 802 95 180 128 90
301 803 95 182 130 92
302 800 94 181 127 90
302 801 94 187 130 92
302 801 95 181 128 89
303 800 94 185 129 92
303 800 95 183 127 89
303 801 95 180 127 88
302 802 94 178 126 88
302 802 95 179 128 89
302 803 95 182 130 91
303 802 95 180 127 88
300 804 95 185 131 94
300 805 95 187 133 96
301 804 95 184 131 94
296 808 95 201 144 108
297 808 95 199 143 106
