ply
format ascii 1.0
comment Version 2, Copyright 2017, 8i Labs, Inc.
comment frame_to_world_scale 0.179523
comment frame_to_world_translation -45.2095 7.18301 -54.3561
comment width 1023
element vertex 259
property float x
property float y
property float z
property uchar red
property uchar green
property uchar blue
end_header
307 432 163 82 103 137
304 432 167 85 109 138
305 432 166 75 102 135
305 432 167 75 101 134
305 433 166 74 96 133
305 433 167 70 95 132
305 434 167 65 89 129
305 435 167 67 92 133
306 432 165 93 110 142
306 433 165 94 110 142
307 432 164 91 106 139
307 432 165 93 109 141
307 433 164 87 105 138
307 433 165 94 109 141
306 432 166 83 106 139
306 433 166 82 103 137
306 434 165 93 109 143
306 435 165 93 109 143
307 434 164 84 103 138
307 434 165 92 108 142
307 435 164 82 102 137
307 435 165 87 105 140
306 434 166 81 102 136
306 435 166 85 104 138
306 435 167 75 96 133
307 435 166 91 108 142
305 436 167 79 101 138
305 437 167 82 105 139
307 436 164 81 101 138
307 436 165 86 104 139
307 437 165 86 105 139
306 436 166 89 107 140
306 436 167 81 101 136
306 437 166 90 107 140
306 437 167 85 104 138
307 436 166 91 108 142
307 437 166 91 108 141
307 438 165 88 106 140
307 439 165 87 106 139
306 438 166 85 105 138
306 438 167 83 105 138
306 439 167 80 102 135
307 438 166 88 107 140
307 439 166 86 106 138
308 432 161 86 107 137
308 433 161 84 106 137
309 432 160 91 109 136
309 433 160 89 107 136
309 433 161 86 107 138
308 432 162 70 100 134
308 432 163 71 99 134
308 433 162 74 102 135
308 433 163 67 97 133
309 434 160 88 106 136
309 434 161 84 107 138
309 435 160 89 107 137
309 435 161 85 107 138
308 434 162 71 100 134
308 434 163 68 95 133
308 435 162 72 100 135
308 435 163 66 94 133
309 434 162 79 104 136
309 435 162 79 105 137
310 435 160 82 104 133
308 433 164 77 100 137
308 434 164 80 101 137
308 435 164 80 101 138
309 436 160 90 109 137
309 436 161 87 109 138
309 437 161 85 108 136
308 436 163 67 95 134
308 437 163 67 95 135
309 436 162 77 103 136
309 437 162 75 102 136
309 437 163 70 98 135
309 438 161 82 107 136
308 438 163 66 94 135
308 439 163 66 94 136
309 438 162 76 102 136
309 438 163 67 96 135
309 439 162 75 101 136
309 439 163 68 96 135
310 436 160 83 105 134
310 437 160 84 107 135
310 437 161 87 110 137
310 438 160 80 104 134
310 438 161 86 109 137
310 439 160 83 104 136
310 439 161 86 109 138
311 439 160 67 94 130
310 439 162 78 103 136
308 436 164 75 98 137
308 437 164 74 98 137
308 438 164 72 96 137
308 438 165 82 102 138
308 439 164 70 95 137
308 439 165 78 100 137
304 432 168 93 114 139
304 433 168 71 98 132
304 434 168 47 83 127
304 434 169 51 87 127
304 435 168 47 86 130
304 435 169 55 91 131
305 434 168 47 79 126
305 435 168 67 95 135
304 436 169 67 100 135
304 437 169 78 108 139
305 436 168 78 105 140
305 437 168 83 110 142
304 438 169 75 107 139
304 439 169 60 95 134
305 438 168 83 109 141
305 438 169 83 112 143
305 439 168 70 100 134
305 439 169 61 96 132
304 438 170 72 104 139
304 439 170 63 96 135
306 439 168 70 96 132
307 440 165 88 107 140
306 440 167 77 101 134
306 441 167 78 102 135
307 440 166 88 108 139
307 441 166 89 108 140
307 441 167 84 106 137
306 442 167 78 103 136
307 442 166 88 108 139
307 442 167 85 107 138
307 443 166 87 107 138
307 443 167 84 107 138
307 444 167 84 106 138
307 445 167 84 105 137
307 446 167 85 105 137
309 440 162 77 103 137
309 440 163 70 98 136
309 441 163 71 99 137
309 442 163 69 99 137
309 443 163 68 99 137
310 440 160 89 107 138
310 440 161 87 109 138
310 441 161 90 110 137
311 440 160 74 96 132
311 441 160 75 98 131
310 440 162 79 105 136
310 441 162 78 105 137
310 442 161 87 108 135
311 442 160 75 99 129
311 442 161 91 109 135
311 443 160 74 98 128
311 443 161 88 108 135
310 442 162 79 106 135
310 442 163 72 101 137
310 443 162 77 104 135
310 443 163 69 100 137
308 440 164 71 97 137
308 440 165 81 103 138
308 441 164 71 98 137
308 441 165 79 101 138
309 441 164 71 98 138
308 442 164 70 97 137
308 442 165 74 99 137
308 443 165 71 97 137
309 442 164 69 97 139
309 443 164 69 97 138
308 442 166 85 106 138
308 443 166 83 104 138
309 444 163 68 100 137
309 445 163 67 99 137
311 444 160 75 97 130
311 444 161 86 106 136
311 445 160 77 97 131
311 445 161 85 105 137
310 444 162 78 103 137
310 444 163 70 101 137
310 445 162 74 102 138
310 445 163 69 100 138
311 445 162 82 105 139
311 446 161 79 103 136
311 447 161 81 104 136
310 446 162 75 104 139
310 446 163 70 100 138
310 447 163 70 101 138
311 446 162 84 107 141
311 447 162 85 107 141
311 447 163 74 103 138
308 444 165 69 95 137
309 444 164 68 98 139
309 444 165 66 95 138
309 445 164 68 98 140
309 445 165 69 95 139
308 444 166 81 102 136
308 444 167 87 107 138
308 445 166 77 99 136
308 445 167 86 106 138
309 446 164 69 98 140
309 446 165 70 97 138
309 447 165 68 96 138
308 446 166 79 99 136
308 446 167 87 105 138
308 447 167 86 104 138
309 446 166 76 98 136
309 447 166 76 98 137
309 447 167 82 101 137
310 446 164 69 97 140
310 447 164 68 97 139
304 441 169 65 95 132
305 440 168 57 88 128
305 440 169 50 86 127
305 441 168 63 92 130
305 441 169 64 95 131
304 440 170 48 84 129
304 441 170 52 87 129
305 442 169 72 99 133
305 443 169 78 103 134
304 442 170 72 100 134
304 443 170 92 115 141
304 443 171 88 112 140
305 443 170 90 113 140
306 440 168 69 93 130
306 441 168 66 94 129
306 442 168 65 94 128
306 442 169 65 93 127
306 443 168 61 92 127
306 443 169 62 91 125
307 443 168 70 101 133
305 444 169 79 103 134
304 444 170 97 119 144
304 444 171 93 116 142
304 445 170 98 120 143
304 445 171 92 115 141
305 444 170 87 110 138
305 445 170 75 102 131
304 446 171 83 108 136
304 447 171 73 99 132
305 446 170 55 85 119
305 446 171 71 98 127
305 447 170 56 83 119
305 447 171 67 95 126
306 444 168 62 93 128
306 444 169 60 90 125
306 445 169 51 83 120
307 444 168 75 105 137
307 445 168 72 100 133
306 446 169 49 78 118
307 446 168 75 102 135
307 446 169 63 90 128
307 447 168 78 103 136
307 447 169 62 91 128
306 446 170 36 66 110
306 447 170 39 73 114
304 446 172 78 102 134
304 447 172 70 95 133
308 446 168 82 104 138
308 447 168 87 107 140
312 443 160 64 93 126
312 444 160 57 86 122
312 445 160 59 84 122
312 446 160 66 90 127
312 447 160 64 89 126
312 447 161 77 101 133
