ply
format ascii 1.0
comment Version 2, Copyright 2017, 8i Labs, Inc.
comment frame_to_world_scale 0.179523
comment frame_to_world_translation -45.2095 7.18301 -54.3561
comment width 1023
element vertex 114
property float x
property float y
property float z
property uchar red
property uchar green
property uchar blue
end_header
305 480 177 87 108 141
305 481 177 76 98 135
304 480 178 126 134 148
304 481 178 105 121 141
304 481 179 109 123 143
305 480 178 104 119 141
305 481 178 80 102 134
305 483 177 74 96 138
304 482 178 95 113 139
304 482 179 102 119 142
304 483 178 99 118 142
304 483 179 101 120 144
305 482 178 69 92 131
305 483 178 95 113 145
306 480 176 62 91 133
306 480 177 71 98 137
306 481 176 64 91 136
306 481 177 58 86 133
307 480 176 63 90 133
307 481 176 68 94 135
306 482 176 65 90 136
306 482 177 54 81 131
306 483 177 61 88 135
307 482 176 77 101 138
307 483 176 79 103 140
304 484 179 94 115 141
304 485 179 106 124 149
305 484 178 94 115 146
305 485 178 94 116 146
304 486 179 109 126 148
304 487 179 112 125 145
305 486 178 101 119 150
305 486 179 105 123 150
305 487 178 84 103 137
305 487 179 93 110 139
306 484 177 68 93 138
306 485 177 79 100 142
307 484 176 72 98 140
307 485 176 71 96 140
307 485 177 72 95 139
306 485 178 91 111 146
306 486 177 86 105 145
306 487 177 66 91 133
307 486 176 71 95 138
307 486 177 77 98 141
307 487 176 92 112 141
307 487 177 79 101 136
306 487 178 65 89 131
308 484 176 77 102 143
308 485 176 72 97 141
308 486 176 66 93 136
308 487 176 108 124 147
304 488 179 124 134 150
304 489 179 121 131 148
305 488 178 97 111 137
305 488 179 107 119 141
305 489 178 117 128 146
305 489 179 119 129 146
304 490 179 118 130 149
305 490 179 116 128 147
305 491 179 107 120 144
306 488 177 108 123 145
306 489 177 131 140 152
307 488 176 139 148 161
307 488 177 130 140 156
307 489 177 141 147 159
306 488 178 90 108 136
306 489 178 122 133 148
306 490 177 132 140 152
307 490 177 133 142 156
307 491 177 107 121 142
306 490 178 121 132 149
306 491 178 108 121 145
306 491 179 105 117 143
304 489 180 123 133 148
304 490 180 118 130 147
304 491 180 108 122 145
305 492 179 112 122 144
305 493 179 118 124 147
305 494 179 112 121 143
305 495 179 130 140 156
307 492 177 120 128 146
307 493 177 123 129 144
306 492 178 117 125 147
306 492 179 114 123 144
306 493 178 119 124 145
306 493 179 118 124 145
307 493 178 119 124 144
307 494 177 113 121 143
307 495 177 78 97 138
306 494 178 110 119 142
306 494 179 112 121 142
306 495 178 123 133 153
306 495 179 135 144 159
307 494 178 110 117 142
307 495 178 93 107 140
304 492 180 111 122 143
304 493 180 117 124 145
304 494 180 112 121 144
304 495 180 103 119 145
308 488 176 144 150 162
308 489 176 144 151 164
308 490 176 113 127 145
308 491 176 99 114 137
308 492 176 124 131 149
308 493 176 124 131 147
309 492 176 127 133 149
309 493 176 126 132 148
308 494 176 114 126 147
308 494 177 113 123 143
308 495 176 95 112 144
308 495 177 79 100 140
309 494 176 116 125 145
309 495 176 83 102 136
