ply
format ascii 1.0
comment Version 2, Copyright 2017, 8i Labs, Inc.
comment frame_to_world_scale 0.179523
comment frame_to_world_translation -45.2095 7.18301 -54.3561
comment width 1023
element vertex 319
property float x
property float y
property float z
property uchar red
property uchar green
property uchar blue
end_header
304 688 101 132 132 136
304 689 101 129 128 130
305 688 101 120 104 100
305 689 101 122 91 87
304 690 100 120 121 124
304 690 101 121 116 114
304 691 100 119 114 117
305 690 101 123 68 61
305 691 100 125 48 44
305 691 101 124 54 49
306 688 101 116 55 58
306 689 101 121 24 41
307 688 101 116 20 32
307 689 101 120 18 30
306 690 101 127 17 33
306 691 100 131 27 31
306 691 101 129 20 32
307 690 101 122 30 27
307 691 101 121 36 27
304 693 99 118 110 111
304 694 99 116 100 100
304 695 99 114 92 91
305 694 99 123 31 38
305 695 99 124 18 31
306 695 99 129 20 26
304 692 100 118 111 112
304 693 100 116 103 101
305 692 100 126 30 32
305 693 100 124 29 29
305 694 100 129 11 25
306 692 100 132 25 32
306 693 100 135 18 33
307 692 100 126 32 39
307 693 100 134 25 43
306 694 100 133 20 30
306 695 100 132 28 30
307 694 100 134 27 36
307 695 100 130 31 34
308 688 101 124 24 30
308 689 101 123 26 22
309 688 101 129 21 33
309 689 101 129 22 31
308 688 102 122 26 37
309 688 102 122 40 40
308 690 101 121 27 23
308 691 101 116 29 25
309 690 101 130 18 30
309 691 101 128 26 29
310 689 101 119 48 38
311 689 101 120 97 87
310 688 102 117 85 74
310 689 102 117 80 66
311 688 102 121 120 121
311 689 102 123 117 114
310 690 101 122 32 28
310 691 101 127 24 30
311 690 101 116 91 80
311 691 101 111 66 56
308 692 100 118 29 39
308 692 101 116 30 28
308 693 100 125 31 42
309 692 101 126 27 26
309 693 100 122 27 25
309 693 101 125 23 25
308 694 100 127 32 34
308 695 100 126 34 27
309 694 100 126 33 20
309 695 100 127 35 26
310 692 101 130 27 30
310 693 101 130 27 22
311 692 101 114 45 37
311 693 101 125 32 31
310 694 100 129 35 23
310 694 101 131 34 25
310 695 100 132 32 29
311 694 101 128 32 32
311 695 100 135 28 35
311 695 101 131 31 39
304 696 99 115 89 87
304 697 98 117 100 98
304 697 99 113 69 65
305 696 99 124 11 26
305 697 98 126 20 29
305 697 99 126 10 25
304 699 97 133 129 131
304 698 98 123 105 102
304 699 98 127 105 102
305 698 98 128 23 30
305 699 98 130 32 32
306 696 99 126 21 22
306 697 99 124 24 22
307 696 99 122 33 25
307 697 99 120 39 33
306 698 98 127 26 25
306 698 99 123 29 28
306 699 98 131 21 25
307 698 98 124 35 35
307 698 99 123 43 42
307 699 98 128 33 36
307 696 100 123 32 28
304 700 97 131 120 118
304 701 97 131 123 121
305 700 97 129 51 43
305 701 97 125 43 40
305 700 98 132 35 34
305 701 98 131 18 32
304 702 97 128 124 125
304 703 97 122 121 124
305 702 97 118 48 43
305 703 97 114 54 51
306 701 97 125 11 28
306 700 98 132 17 28
306 701 98 128 16 27
307 700 98 129 21 30
307 701 98 128 19 28
306 702 97 121 12 25
306 703 97 120 17 26
306 702 98 123 22 25
307 702 98 125 21 29
307 703 98 125 22 34
308 697 99 117 36 32
309 697 99 126 32 30
308 698 99 123 44 42
308 699 98 127 39 37
308 699 99 128 41 41
309 698 99 131 36 34
309 699 99 130 25 36
310 698 99 130 29 38
310 699 99 128 29 32
308 696 100 123 37 31
308 697 100 122 35 34
309 696 100 129 33 33
309 697 100 129 31 33
310 696 100 132 28 30
310 697 100 131 26 29
311 696 100 133 28 34
311 697 100 131 26 25
310 698 100 130 25 32
311 698 100 127 25 21
311 699 100 127 24 22
308 700 98 125 24 27
308 700 99 126 26 33
308 701 98 121 26 23
309 700 99 125 29 35
309 701 98 114 34 23
309 701 99 118 33 24
308 702 98 115 30 25
308 703 98 117 34 32
309 702 98 107 33 20
309 702 99 111 34 19
309 703 98 108 38 28
309 703 99 111 36 28
310 700 99 125 34 27
310 701 99 122 36 20
311 700 99 127 30 28
311 701 99 129 33 28
310 702 99 121 36 20
310 703 99 120 36 24
311 702 99 129 36 26
311 703 99 129 36 25
312 688 102 108 115 124
312 689 102 97 103 111
313 688 102 114 121 133
313 689 102 82 93 107
312 690 101 120 117 117
312 691 101 112 109 108
313 691 101 67 78 98
312 690 102 99 103 109
313 690 102 60 73 90
313 691 102 53 70 94
314 688 102 124 130 141
314 689 102 116 123 135
315 688 102 125 131 141
315 689 102 124 132 144
314 690 102 88 101 117
314 691 102 58 77 99
315 690 102 122 129 141
315 691 102 108 116 130
312 692 101 107 95 87
312 693 101 100 70 64
313 692 101 84 94 110
313 693 101 100 106 117
312 694 101 96 59 51
312 695 101 97 52 44
313 694 101 100 103 108
313 695 101 90 92 94
314 692 101 50 65 95
314 693 101 66 74 103
315 692 101 39 50 87
315 693 101 52 52 91
314 692 102 49 71 95
315 692 102 79 88 107
315 693 102 61 64 92
314 694 101 81 88 108
314 695 101 96 103 115
315 694 101 51 49 89
315 695 101 64 63 98
316 688 102 124 131 141
316 688 103 125 129 138
316 689 102 124 131 142
317 688 103 125 128 136
317 689 102 125 130 140
317 689 103 125 130 139
316 690 102 125 132 143
316 691 102 125 132 143
317 690 102 124 130 141
317 690 103 124 130 140
317 691 102 124 132 143
318 688 103 121 126 134
318 689 103 124 128 137
319 688 103 122 126 135
319 689 103 122 126 136
318 690 102 124 130 140
318 690 103 124 129 139
318 691 102 124 131 142
318 691 103 126 131 141
319 690 103 124 128 137
319 691 103 125 130 138
316 692 102 117 123 134
316 693 102 100 107 120
317 692 102 124 131 143
317 693 102 123 130 140
316 694 101 59 66 90
316 695 101 52 57 90
317 695 101 88 95 109
316 694 102 85 93 107
317 694 102 118 124 134
317 695 102 105 112 123
318 692 102 126 132 143
318 693 102 127 133 143
319 692 103 127 131 140
319 693 102 128 133 143
319 693 103 129 134 142
318 694 102 124 130 140
318 695 102 119 125 134
319 694 102 126 131 141
319 695 102 122 128 137
319 688 104 125 129 138
312 696 100 104 43 34
312 696 101 93 49 33
312 697 100 105 46 40
313 696 101 76 74 74
313 697 100 74 55 53
313 697 101 62 56 58
312 698 100 106 52 43
312 699 100 112 52 39
313 698 100 67 60 56
313 698 101 54 53 56
313 699 100 73 62 60
314 696 101 92 98 106
314 697 101 80 84 89
315 696 101 70 72 102
315 697 101 81 84 101
314 698 101 62 61 66
314 699 100 52 49 50
314 699 101 59 56 59
315 698 101 89 87 94
315 699 101 85 78 82
312 700 99 124 38 24
312 701 99 124 42 31
313 701 99 104 71 64
312 702 99 126 40 28
312 703 99 125 36 27
313 702 99 93 63 54
313 703 99 92 60 47
314 702 99 59 47 46
314 703 99 57 46 46
315 703 99 67 42 48
312 700 100 115 58 44
313 700 100 86 69 65
313 701 100 83 65 59
314 700 100 59 52 52
314 701 100 60 49 48
315 700 101 77 66 68
315 701 100 68 51 52
314 702 100 56 44 48
315 702 100 66 43 48
315 703 100 72 42 42
316 696 101 45 47 90
316 697 101 48 51 95
317 696 101 80 83 102
317 697 101 70 68 96
317 696 102 100 104 116
316 698 101 63 63 92
316 699 101 67 64 91
317 698 101 53 49 90
317 699 101 52 47 89
318 697 101 96 100 111
319 697 101 113 119 128
318 696 102 112 117 126
318 697 102 110 114 123
319 696 102 118 124 133
319 697 102 115 122 131
318 698 101 80 84 99
318 699 101 68 68 91
319 698 101 113 120 129
319 699 101 109 115 124
319 698 102 117 123 133
316 703 99 89 44 42
316 700 101 73 70 87
316 701 100 78 62 61
316 701 101 76 71 80
317 700 101 56 50 89
317 701 101 53 52 85
316 702 100 82 63 63
316 703 100 90 56 55
317 702 100 64 57 83
317 702 101 53 51 83
317 703 100 77 62 82
318 700 101 57 50 85
318 701 101 50 40 80
319 700 101 96 103 114
319 701 101 73 81 100
318 702 100 50 42 83
318 702 101 46 37 81
318 703 100 53 46 83
318 703 101 48 40 84
319 702 101 60 66 91
319 703 101 53 54 85
