ply
format ascii 1.0
comment Version 2, Copyright 2017, 8i Labs, Inc.
comment frame_to_world_scale 0.179523
comment frame_to_world_translation -45.2095 7.18301 -54.3561
comment width 1023
element vertex 352
property float x
property float y
property float z
property uchar red
property uchar green
property uchar blue
end_header
323 464 96 136 137 143
323 465 96 144 143 148
323 466 96 146 145 149
324 464 96 138 138 143
324 464 97 145 144 148
324 465 96 143 142 147
324 465 97 143 142 148
325 464 97 147 145 150
325 465 97 143 143 148
325 464 98 149 147 149
325 465 98 145 143 147
324 466 96 146 145 149
324 466 97 142 141 147
324 467 96 127 131 141
324 467 97 130 134 144
325 466 97 141 141 146
325 467 97 131 134 145
325 466 98 145 143 146
325 467 98 133 135 142
326 464 99 151 148 150
326 465 99 148 146 149
326 466 99 150 147 150
326 467 99 140 140 146
327 466 99 153 150 154
327 467 99 150 148 152
327 464 100 154 151 155
327 465 100 153 151 156
327 466 100 153 151 155
327 467 100 146 145 150
327 467 101 144 144 150
324 468 96 92 107 127
324 468 97 103 116 134
324 469 96 78 97 123
324 469 97 78 98 124
325 468 97 105 117 135
325 469 97 82 101 127
325 468 98 105 116 133
325 469 98 84 101 128
324 470 96 62 87 121
324 470 97 65 90 124
324 471 96 64 88 117
324 471 97 68 91 125
325 470 97 68 93 125
325 471 97 68 92 127
325 470 98 73 95 129
325 471 98 65 92 127
326 468 99 113 122 136
326 469 98 88 104 130
326 469 99 93 111 134
326 470 98 78 99 131
326 470 99 84 104 135
326 471 98 68 95 129
326 471 99 66 96 129
327 468 100 126 132 144
327 468 101 132 137 147
327 469 100 106 121 142
327 469 101 116 129 147
326 470 100 76 101 135
326 471 100 64 96 130
327 470 100 86 108 140
327 470 101 90 111 142
327 471 100 65 97 132
327 471 101 67 97 134
324 472 96 68 93 116
324 472 97 70 94 121
324 473 96 81 102 124
324 473 97 78 100 123
325 473 97 84 104 125
325 472 98 72 94 127
325 473 98 81 103 127
324 474 96 102 115 131
324 474 97 99 113 129
324 475 96 124 129 139
324 475 97 125 129 139
325 474 97 98 112 128
325 475 97 121 126 136
325 474 98 95 111 129
325 475 98 119 125 136
326 472 99 63 91 126
326 473 99 79 103 128
326 474 99 103 119 138
326 475 98 137 140 149
326 475 99 130 136 148
326 472 100 60 91 127
326 473 100 73 100 129
327 472 100 59 91 128
327 472 101 57 91 129
327 473 100 70 97 129
327 473 101 66 93 129
326 474 100 98 116 137
326 475 100 126 133 146
327 474 100 89 110 132
327 474 101 88 109 133
327 475 100 122 131 145
327 475 101 115 126 141
324 476 96 139 138 143
324 476 97 145 143 147
324 477 96 143 141 144
324 477 97 147 144 146
325 476 97 147 144 148
325 477 97 146 142 144
325 476 98 145 144 149
325 477 98 145 142 143
324 478 96 139 138 142
324 479 96 126 127 132
325 478 97 136 133 136
325 479 97 127 125 128
325 478 98 133 130 131
325 479 98 131 128 130
326 476 98 147 145 149
326 476 99 134 137 146
326 477 98 142 140 142
326 477 99 138 137 141
326 478 98 135 131 133
326 478 99 136 133 135
326 479 98 137 133 135
326 479 99 142 139 141
326 476 100 140 143 151
327 476 100 141 142 149
327 476 101 133 137 146
327 477 100 133 133 138
327 477 101 131 131 136
327 478 100 137 134 137
327 478 101 135 133 135
327 479 100 146 143 146
327 479 101 143 141 145
328 464 101 150 149 156
328 465 101 148 149 158
328 464 102 145 146 153
328 465 102 141 144 154
329 464 102 140 141 150
329 465 102 137 141 151
329 465 103 128 132 143
328 466 101 144 145 154
328 467 101 144 144 151
328 466 102 139 142 152
328 467 102 140 143 151
329 466 102 132 136 147
329 466 103 128 133 144
329 467 102 138 141 150
329 467 103 149 150 157
330 464 103 129 133 143
330 465 103 123 128 140
330 466 103 133 136 147
330 467 103 158 157 163
328 468 101 134 138 147
328 469 101 121 132 148
328 468 102 140 143 152
328 469 102 127 136 150
329 468 103 156 156 163
329 469 103 143 147 158
328 470 101 95 114 143
328 470 102 100 117 142
328 471 102 76 101 136
329 470 103 109 123 143
329 471 103 84 105 137
330 468 103 163 161 166
330 464 104 127 131 141
330 465 104 128 132 142
331 464 104 129 133 141
331 464 105 139 140 147
331 465 104 137 139 147
331 465 105 150 150 156
330 466 104 147 147 155
330 467 104 159 157 162
331 466 105 156 154 160
331 467 105 159 156 161
331 467 106 158 155 159
330 468 104 157 155 159
330 469 104 150 151 158
331 468 105 154 152 157
331 469 105 149 150 158
331 468 106 156 154 159
331 469 106 153 154 162
330 470 104 120 130 145
330 471 104 93 113 138
331 470 105 125 133 148
331 471 105 98 116 139
331 470 106 126 135 150
331 471 106 101 118 141
332 464 106 157 154 158
332 465 106 167 163 167
333 464 107 169 165 169
333 465 107 170 166 169
332 466 106 164 161 164
332 467 106 160 157 161
333 466 107 168 163 166
333 467 107 165 162 165
333 464 108 170 166 169
333 465 108 167 163 166
333 466 108 167 163 165
333 467 108 169 165 167
334 464 108 168 165 168
334 464 109 166 163 167
334 465 108 167 164 167
334 465 109 163 159 162
334 464 110 162 160 165
334 465 110 158 157 161
335 464 111 149 150 156
335 465 111 152 151 156
334 466 109 164 160 162
334 467 109 164 161 165
334 466 110 158 156 160
334 467 110 157 156 161
335 466 111 153 152 157
335 467 111 145 146 153
332 468 106 158 155 160
332 468 107 160 158 162
332 469 106 155 156 164
332 469 107 157 157 165
333 468 107 166 163 167
333 469 107 160 160 168
332 470 106 128 137 152
332 470 107 133 141 156
332 471 106 104 120 142
332 471 107 104 120 142
333 470 107 144 150 164
333 471 107 120 132 150
333 468 108 167 164 167
333 469 108 162 163 170
333 470 108 144 150 163
333 470 109 143 149 163
333 471 108 108 122 142
333 471 109 106 121 142
334 468 109 164 162 167
334 469 109 160 161 169
334 468 110 155 154 161
334 469 110 150 152 160
335 468 111 143 146 155
335 469 111 134 140 153
334 470 109 137 146 162
334 471 109 103 121 142
334 470 110 129 138 152
334 470 111 117 128 144
334 471 110 104 120 140
334 471 111 103 119 139
335 470 111 101 117 138
335 471 111 107 121 139
328 472 102 56 92 127
328 473 102 61 92 127
329 472 103 60 92 128
329 473 103 50 88 122
328 474 102 82 104 130
328 475 102 100 114 131
329 474 103 73 99 125
329 475 103 98 113 131
330 473 103 49 88 122
330 474 103 73 99 125
330 475 103 96 112 131
328 477 101 131 131 135
328 476 102 118 124 135
328 477 102 136 136 142
329 476 103 119 126 137
329 477 103 136 138 145
328 478 101 142 140 143
328 479 101 137 135 139
328 478 102 146 144 148
328 479 102 142 141 146
329 478 102 146 144 149
329 478 103 142 142 148
329 479 102 143 142 147
329 479 103 142 141 148
330 472 104 69 98 132
330 473 104 49 85 123
331 472 105 77 102 133
331 473 105 56 89 127
331 472 106 82 105 135
331 473 106 64 93 128
330 474 104 71 98 127
330 475 104 100 114 132
331 474 105 67 96 128
331 475 105 97 112 131
331 474 106 66 94 126
331 475 106 93 110 131
330 476 104 122 128 139
330 477 104 141 143 150
331 476 105 119 127 140
331 477 105 137 142 152
331 476 106 113 124 139
331 477 106 131 138 151
330 478 104 146 147 155
330 479 104 137 140 149
331 478 105 147 149 158
331 479 105 139 141 149
331 478 106 142 145 156
331 479 106 136 137 144
332 472 106 87 109 136
332 472 107 92 113 139
332 473 106 73 100 131
332 473 107 71 99 130
332 474 106 73 98 126
332 474 107 68 96 128
332 475 106 88 108 131
332 475 107 84 105 130
333 472 108 94 115 139
333 472 109 98 116 138
333 473 108 81 106 135
333 473 109 87 108 136
333 474 108 70 99 131
333 474 109 78 103 134
333 475 108 76 102 128
333 475 109 73 101 128
334 472 109 100 117 138
334 473 109 99 117 138
334 472 110 111 124 141
334 472 111 120 131 147
334 473 110 116 128 145
334 473 111 127 137 152
335 472 111 137 144 157
335 473 111 142 149 161
334 474 109 84 106 134
334 475 109 73 101 128
334 474 110 99 116 137
334 474 111 109 122 140
334 475 110 80 103 127
334 475 111 87 106 128
335 474 111 119 130 145
335 475 111 90 107 127
332 476 106 113 124 141
332 476 107 105 120 139
332 477 106 128 136 150
332 477 107 121 131 148
333 477 107 112 125 143
332 478 106 135 141 153
332 478 107 124 133 147
332 479 106 134 136 144
332 479 107 138 142 151
333 478 107 117 127 142
333 479 107 142 144 153
333 476 108 91 111 133
333 476 109 82 105 129
333 477 108 100 115 134
333 477 109 85 104 125
333 478 108 106 118 135
333 478 109 100 113 130
333 479 108 131 135 146
333 479 109 125 130 141
334 476 109 79 104 128
334 477 109 86 104 124
334 476 110 88 108 129
334 476 111 88 107 127
334 477 110 95 110 128
334 477 111 96 110 127
335 476 111 89 107 125
335 477 111 108 119 133
334 478 109 97 110 126
334 479 109 124 130 141
334 478 110 105 116 131
334 478 111 132 138 149
334 479 110 128 135 148
335 478 111 136 142 152
335 479 111 140 146 159
