ply
format ascii 1.0
comment Version 2, Copyright 2017, 8i Labs, Inc.
comment frame_to_world_scale 0.179523
comment frame_to_world_translation -45.2095 7.18301 -54.3561
comment width 1023
element vertex 180
property float x
property float y
property float z
property uchar red
property uchar green
property uchar blue
end_header
332 561 159 117 129 147
333 560 158 139 143 154
333 560 159 107 120 138
333 561 158 121 130 144
333 561 159 115 126 143
332 562 159 110 124 142
332 563 159 107 122 140
333 562 158 129 137 151
333 562 159 120 131 148
333 563 158 132 140 153
333 563 159 117 130 146
334 561 157 138 141 151
335 560 156 146 151 162
335 560 157 138 143 154
335 561 156 148 150 158
335 561 157 142 145 155
334 560 158 140 143 152
334 561 158 125 132 145
334 562 157 141 145 155
334 563 156 137 141 151
334 563 157 140 145 155
335 562 156 144 146 154
335 563 156 133 137 148
334 562 158 133 140 152
335 564 155 123 132 146
335 565 155 120 131 147
335 566 155 118 128 143
335 567 154 116 121 136
335 567 155 121 127 141
333 564 157 130 136 147
333 565 157 114 125 141
332 564 159 124 133 147
332 565 159 128 134 146
333 564 158 134 140 151
333 564 159 125 134 149
333 565 158 119 128 142
333 566 157 104 121 141
333 567 157 116 131 150
332 566 158 133 139 152
332 566 159 135 139 149
332 567 158 136 142 154
332 567 159 140 143 152
333 566 158 119 129 144
333 567 158 124 135 151
334 564 156 139 143 153
334 564 157 141 145 155
334 565 156 124 132 145
334 565 157 115 126 142
335 564 156 130 135 147
335 565 156 126 133 147
334 566 156 113 125 141
334 566 157 101 119 139
334 567 156 118 129 145
335 566 156 120 128 142
335 571 150 87 106 128
335 571 151 79 98 119
335 573 145 125 128 137
335 573 146 113 121 135
335 573 147 98 112 132
335 574 144 137 133 135
335 574 145 117 121 131
335 575 144 121 125 134
335 575 145 112 119 132
334 575 146 105 117 133
334 575 147 104 116 133
335 574 146 99 111 126
335 574 147 92 107 128
335 575 146 104 115 131
335 575 147 99 113 133
333 575 151 166 155 150
335 572 148 90 110 132
335 572 149 92 111 132
335 573 148 92 109 130
335 573 149 103 115 136
334 573 151 153 148 150
335 572 150 97 113 133
335 572 151 106 118 132
335 573 150 119 126 140
335 573 151 137 138 145
334 574 149 117 124 137
334 575 148 101 112 130
334 575 149 110 116 129
335 574 148 97 111 132
335 574 149 109 118 136
334 574 150 135 135 141
334 574 151 161 153 152
334 575 150 137 134 139
334 575 151 160 151 149
331 569 159 113 125 142
331 570 159 106 123 142
331 571 159 103 122 143
329 575 159 90 113 136
331 573 157 116 127 143
330 573 159 103 120 141
331 572 158 102 120 140
331 572 159 102 121 143
331 573 158 105 121 140
331 573 159 101 120 141
331 574 157 115 124 139
331 575 156 114 121 134
331 575 157 103 117 135
330 574 158 98 118 139
330 574 159 98 117 139
330 575 158 94 116 139
330 575 159 93 115 138
331 574 158 100 118 138
335 568 153 123 127 141
335 569 153 119 124 139
334 568 155 113 123 142
334 569 155 108 120 138
335 568 154 115 121 137
335 568 155 118 124 141
335 569 154 107 116 134
335 569 155 109 119 139
334 571 153 160 155 157
335 570 152 82 100 125
335 570 153 101 112 132
335 571 152 85 102 122
335 571 153 121 127 139
334 570 154 139 140 148
334 570 155 134 138 148
334 571 154 169 163 163
334 571 155 168 162 162
335 570 154 115 122 135
333 568 156 106 124 145
333 568 157 106 124 145
333 569 156 102 121 143
333 569 157 94 117 142
332 568 158 112 125 143
332 568 159 126 133 146
332 569 158 94 115 138
332 569 159 103 119 138
333 568 158 121 133 151
332 570 157 93 116 139
332 571 157 104 121 140
333 570 156 120 132 148
333 570 157 101 121 142
333 571 156 139 142 150
333 571 157 109 124 142
332 570 158 94 116 139
332 570 159 101 119 139
332 571 158 97 118 140
334 568 156 115 127 145
334 569 156 108 124 142
334 570 156 135 141 153
333 573 153 182 166 157
333 572 155 174 163 159
333 573 154 181 166 158
333 573 155 176 165 160
333 574 153 181 165 156
333 575 152 178 164 156
333 575 153 180 165 156
332 574 155 169 160 157
332 575 154 169 158 153
332 575 155 154 148 149
333 574 154 179 165 157
333 574 155 175 163 159
333 575 154 175 162 155
334 572 153 170 162 160
334 573 152 171 160 157
334 573 153 182 168 161
335 572 152 132 133 140
335 572 153 141 140 146
335 573 152 154 149 151
334 572 154 183 171 165
334 572 155 178 167 163
334 573 154 183 169 160
334 574 152 176 163 156
334 574 153 181 167 159
334 575 152 177 164 157
332 572 157 119 130 145
332 573 156 158 153 156
332 573 157 134 139 150
333 572 156 152 148 151
333 572 157 133 137 147
333 573 156 160 153 154
332 572 158 101 120 141
332 574 156 154 151 154
332 574 157 139 142 151
332 575 156 130 132 140
