ply
format ascii 1.0
comment Version 2, Copyright 2017, 8i Labs, Inc.
comment frame_to_world_scale 0.179523
comment frame_to_world_translation -45.2095 7.18301 -54.3561
comment width 1023
element vertex 164
property float x
property float y
property float z
property uchar red
property uchar green
property uchar blue
end_header
320 480 90 121 126 136
320 480 91 122 126 135
320 481 90 118 124 134
320 481 91 123 127 136
321 480 91 126 129 137
321 481 91 130 132 140
320 482 90 123 127 136
320 482 91 128 131 138
320 483 90 112 116 124
321 482 91 125 126 132
321 483 91 118 117 122
321 480 92 131 134 142
321 481 92 133 134 141
321 482 92 128 128 133
321 483 92 125 123 124
322 480 92 133 135 144
322 480 93 128 130 137
322 481 92 135 136 141
322 481 93 132 131 136
323 480 93 124 125 132
323 481 93 132 130 133
323 480 94 130 129 134
323 481 94 127 125 129
322 482 92 127 127 132
322 482 93 129 129 133
322 483 92 127 123 124
322 483 93 132 128 129
323 482 93 133 131 134
323 483 93 142 137 138
323 482 94 133 132 134
323 483 94 143 140 143
320 484 89 93 100 109
320 485 89 106 110 117
320 484 90 98 105 113
320 485 90 105 111 121
321 484 90 103 109 118
321 484 91 117 119 125
321 485 90 111 116 126
321 485 91 123 126 134
320 486 89 120 127 141
320 487 89 94 111 133
320 486 90 120 127 140
320 487 90 94 110 132
321 486 90 106 117 136
321 486 91 115 122 135
321 487 91 96 110 131
322 485 91 129 131 139
322 486 91 120 125 137
322 487 91 102 113 132
322 484 92 138 134 136
322 484 93 145 140 140
322 485 92 141 140 145
323 484 93 152 146 145
323 485 93 151 146 148
323 484 94 155 149 149
323 485 94 155 150 151
322 486 92 131 134 144
322 487 92 109 118 135
323 486 93 142 143 150
323 487 92 112 122 139
323 487 93 122 130 144
323 486 94 150 147 151
324 480 95 126 125 129
324 481 94 126 124 126
324 481 95 128 125 127
324 482 94 131 130 134
324 482 95 137 135 138
324 483 94 147 143 146
324 483 95 145 143 147
325 483 95 142 141 145
324 484 94 152 148 150
324 484 95 149 147 151
324 485 94 152 148 151
324 485 95 146 145 151
325 484 95 141 140 146
325 485 95 138 139 146
324 486 94 144 145 152
324 486 95 137 140 147
324 487 94 118 127 142
324 487 95 130 134 146
325 486 95 129 134 144
325 487 95 107 116 130
320 488 89 88 107 132
320 489 89 73 97 125
320 488 90 91 109 133
320 489 90 74 98 126
321 488 90 93 111 134
321 488 91 94 110 133
321 489 90 80 102 129
321 489 91 91 109 132
320 490 89 73 98 126
320 491 89 85 106 131
320 490 90 71 96 125
320 491 90 82 104 130
321 490 90 70 96 126
321 491 90 84 106 130
321 491 91 84 106 129
322 488 91 92 109 132
322 489 91 87 107 131
322 490 91 74 100 126
322 491 91 78 101 126
322 488 92 94 110 133
322 489 92 90 108 130
323 488 92 94 110 133
323 488 93 89 107 131
323 489 92 89 106 128
323 489 93 80 99 124
322 490 92 75 99 125
323 490 92 71 95 121
323 490 93 67 91 118
323 491 92 68 94 120
323 491 93 64 92 119
320 492 89 83 105 129
320 493 89 84 106 130
321 492 90 83 104 126
321 493 90 82 102 125
320 494 89 80 101 127
320 495 89 73 95 121
321 494 89 80 100 124
321 495 89 74 94 119
321 494 90 76 97 121
321 495 90 81 99 120
322 492 91 79 101 124
322 493 91 79 100 121
323 493 91 75 96 118
322 494 91 79 98 120
322 495 91 106 116 131
323 494 91 78 98 118
323 492 92 76 98 121
323 492 93 82 102 124
323 493 92 81 99 120
323 494 92 103 114 129
323 495 92 151 151 159
324 489 93 72 92 121
324 488 94 77 101 125
324 488 95 83 103 124
324 489 94 67 91 124
325 488 95 78 99 121
325 489 95 61 92 124
324 490 93 65 90 118
324 491 93 69 95 120
324 490 94 68 90 123
324 491 94 74 99 124
325 490 94 73 94 128
325 490 95 69 95 129
325 491 94 76 100 127
325 491 95 74 99 126
324 492 93 88 107 128
324 493 93 90 105 124
324 492 94 90 109 130
324 493 94 94 109 128
325 492 95 82 102 124
325 493 94 91 106 126
325 493 95 85 103 125
324 494 93 116 124 136
324 495 93 166 164 170
324 494 94 117 124 136
324 495 94 163 161 166
325 494 94 113 121 134
325 494 95 105 115 132
325 495 94 156 155 162
325 495 95 138 139 148
326 494 95 92 107 128
326 495 95 114 121 136
