ply
format ascii 1.0
comment Version 2, Copyright 2017, 8i Labs, Inc.
comment frame_to_world_scale 0.179523
comment frame_to_world_translation -45.2095 7.18301 -54.3561
comment width 1023
element vertex 161
property float x
property float y
property float z
property uchar red
property uchar green
property uchar blue
end_header
320 617 102 98 102 111
320 617 103 92 99 109
320 618 101 117 120 128
320 619 101 132 135 143
321 619 101 116 119 127
320 618 102 105 109 117
321 618 102 90 97 107
321 618 103 82 94 107
321 619 102 103 108 116
322 618 103 90 102 118
322 619 102 98 105 124
322 619 103 93 103 121
323 619 103 95 108 125
320 620 101 160 163 172
320 621 101 168 169 184
321 620 101 133 137 148
321 621 101 137 143 161
320 621 102 175 174 189
321 620 102 118 125 140
321 621 102 126 133 152
320 622 102 188 187 198
320 622 103 167 167 184
320 623 103 190 186 201
321 622 102 153 155 172
321 622 103 150 153 172
322 620 102 108 119 137
322 620 103 103 115 131
322 621 102 115 126 143
322 621 103 116 126 143
323 620 103 99 111 129
323 621 103 110 120 138
322 622 103 126 134 151
323 622 103 118 126 144
320 616 105 96 104 117
320 617 104 90 100 112
320 617 105 93 104 118
321 617 104 86 98 113
321 617 105 90 102 117
320 616 106 99 109 122
320 617 106 94 106 122
320 617 107 97 109 124
321 617 106 89 104 121
321 617 107 84 104 125
321 618 104 83 97 112
321 618 105 88 101 117
322 618 104 87 100 117
322 618 105 83 99 117
322 619 104 94 106 122
323 618 105 85 100 116
323 619 104 92 106 122
323 619 105 86 102 120
322 618 106 85 102 120
322 618 107 89 106 124
323 618 106 82 100 119
323 618 107 86 105 124
323 619 106 77 98 118
323 619 107 79 101 123
320 617 108 100 111 125
320 617 109 100 111 126
321 617 108 88 106 126
321 617 109 92 108 127
320 617 110 100 111 127
320 617 111 101 112 127
321 617 110 92 108 128
321 617 111 94 109 129
321 618 111 87 106 131
322 617 108 88 107 127
322 617 109 90 108 128
322 617 110 89 107 128
322 618 108 89 107 127
322 618 109 88 107 129
323 618 108 92 110 130
323 618 109 90 110 131
323 619 108 94 112 131
322 618 110 86 107 129
322 618 111 84 105 129
323 618 110 89 111 134
323 618 111 81 105 130
320 623 104 181 173 194
321 623 104 155 152 172
323 620 104 92 107 125
323 621 104 100 112 132
322 622 104 136 139 156
322 623 104 142 141 155
322 623 105 135 133 151
323 622 104 106 114 136
323 622 105 90 97 126
323 623 105 108 107 128
324 619 105 87 102 120
324 619 106 76 99 120
324 619 107 79 101 123
324 618 109 88 110 134
324 619 108 74 98 123
324 619 109 83 105 128
325 619 108 69 94 120
325 619 109 75 100 127
324 618 110 90 113 137
324 618 111 91 113 138
325 618 110 82 107 138
325 618 111 91 113 141
325 619 110 85 110 136
325 619 111 91 114 139
326 619 109 66 98 124
326 619 110 86 111 134
326 619 111 90 114 139
327 619 110 82 108 131
327 619 111 86 113 137
324 620 105 86 102 120
324 621 105 82 98 118
324 620 106 89 103 120
325 620 106 89 103 120
325 620 107 78 94 114
325 621 106 82 93 108
325 621 107 82 90 101
324 622 104 92 101 126
324 622 105 83 91 120
324 623 105 85 89 115
324 623 106 84 87 108
325 622 106 76 84 113
325 623 106 82 84 107
325 623 107 85 87 104
326 620 107 71 83 99
326 621 107 84 89 97
326 622 107 83 91 108
326 623 107 84 86 105
325 620 108 80 101 122
325 620 109 66 94 119
326 620 108 59 74 101
326 620 109 59 80 110
326 621 108 61 77 99
327 620 109 63 74 110
327 621 108 67 81 96
327 621 109 61 72 94
327 620 110 83 103 127
326 623 108 84 84 99
327 622 108 74 86 100
327 623 108 76 76 91
328 619 111 98 116 135
328 620 109 69 68 93
328 621 109 59 75 102
328 620 110 80 90 110
328 620 111 98 111 128
328 621 110 65 82 101
329 620 111 103 114 127
329 621 110 71 92 114
329 621 111 94 108 124
328 622 108 73 87 108
328 622 109 63 76 106
328 623 109 77 86 116
329 623 109 81 94 122
329 622 110 77 94 123
329 623 110 84 96 132
330 621 111 83 107 134
331 621 111 89 113 137
330 622 110 92 111 139
330 622 111 98 114 141
330 623 110 78 100 148
331 622 111 101 121 151
331 623 111 99 127 165
332 622 111 92 123 160
332 623 111 82 123 171
