ply
format ascii 1.0
comment Version 2, Copyright 2017, 8i Labs, Inc.
comment frame_to_world_scale 0.179523
comment frame_to_world_translation -45.2095 7.18301 -54.3561
comment width 1023
element vertex 419
property float x
property float y
property float z
property uchar red
property uchar green
property uchar blue
end_header
320 627 112 49 57 79
321 627 112 50 53 74
322 627 112 58 65 80
323 627 112 53 62 87
320 628 112 55 64 84
320 628 113 57 69 84
320 629 113 56 68 82
321 628 112 51 56 78
321 628 113 52 58 81
321 629 113 52 58 78
320 629 114 55 63 80
321 629 114 35 54 87
320 630 114 51 55 84
320 630 115 29 51 92
320 631 115 7 48 93
321 630 115 26 71 117
322 628 112 56 58 79
322 628 113 40 58 86
323 628 113 29 64 101
322 628 114 19 51 95
322 629 114 29 65 108
322 629 115 56 104 153
323 628 114 58 101 146
323 629 114 51 90 132
323 629 115 76 135 184
322 630 115 55 101 156
320 631 116 44 83 126
321 630 116 72 120 170
321 631 116 68 119 167
321 631 117 82 142 192
323 629 116 80 150 202
322 630 116 74 136 193
322 630 117 66 148 208
322 631 117 71 153 211
323 630 116 80 154 208
323 630 117 77 160 214
323 631 117 68 162 217
322 631 118 68 155 211
323 631 118 70 163 217
324 626 112 37 61 96
324 627 112 32 69 108
324 627 113 41 97 145
325 627 112 61 116 160
325 627 113 80 145 197
326 626 112 77 137 189
326 627 112 90 153 206
326 627 113 77 154 210
327 626 112 73 148 210
327 627 112 79 151 212
327 627 113 67 151 215
326 627 114 71 153 214
327 627 114 72 149 210
324 628 113 62 116 167
324 628 114 77 138 193
324 628 115 80 150 205
324 629 115 70 151 208
325 628 114 67 150 211
325 628 115 73 156 213
325 629 115 80 157 211
326 628 114 61 151 214
326 628 115 72 158 217
326 629 115 65 155 211
327 628 114 81 152 214
327 628 115 78 155 213
324 629 116 71 157 215
325 629 116 79 166 219
325 629 117 73 163 216
324 630 116 71 159 216
324 630 117 72 161 216
325 630 117 75 166 217
324 630 118 72 164 216
324 631 118 68 162 216
324 631 119 62 159 214
325 630 118 72 163 213
325 631 118 77 166 215
325 631 119 61 157 210
326 629 116 78 160 214
326 629 117 84 163 215
327 628 116 78 160 216
327 629 116 82 162 217
327 629 117 89 162 212
326 630 117 76 161 213
326 630 118 67 153 207
326 631 119 69 152 206
327 630 118 79 155 206
327 630 119 78 152 202
327 631 119 102 162 207
326 631 120 98 161 209
327 631 120 133 174 212
320 632 116 70 114 154
320 632 117 90 144 188
321 632 117 79 155 208
320 633 118 83 150 198
321 632 118 76 160 213
321 633 118 77 158 210
321 633 119 79 154 206
320 634 118 88 148 191
320 634 119 87 155 202
320 635 119 91 144 184
321 634 119 85 158 209
322 632 118 75 156 211
322 632 119 77 154 207
322 633 119 84 161 210
323 632 118 77 163 213
323 632 119 84 165 214
323 633 119 81 157 208
324 632 119 74 161 212
325 632 119 54 150 206
320 635 120 94 157 201
321 634 120 87 162 212
321 635 120 86 158 208
323 633 120 74 155 206
322 634 120 85 162 211
322 635 120 79 155 206
322 635 121 72 145 198
323 634 120 70 150 203
323 634 121 71 148 201
323 635 121 76 143 193
320 636 120 104 156 196
320 636 121 97 157 200
320 637 121 81 131 171
321 636 121 85 153 201
321 637 121 79 139 187
320 638 121 89 128 162
320 639 121 89 120 149
321 638 121 84 138 183
320 639 122 89 127 161
321 638 122 80 131 175
321 639 122 84 131 168
322 636 121 73 138 188
322 637 121 73 133 181
323 636 121 75 137 187
322 637 122 79 134 178
323 636 122 90 144 187
323 637 122 118 153 189
322 638 122 88 137 177
322 639 122 80 128 167
323 638 122 129 155 189
323 638 123 126 147 182
323 639 122 89 128 169
323 639 123 96 126 167
324 632 120 65 151 204
324 633 120 72 151 202
325 632 120 68 151 204
325 633 120 86 156 206
325 633 121 104 160 205
324 634 121 82 150 198
324 635 121 106 159 200
325 634 121 120 165 204
324 635 122 139 170 203
325 634 122 155 179 208
325 635 122 151 170 199
326 632 120 119 169 211
326 633 121 144 172 206
327 632 120 146 180 214
327 632 121 165 186 214
327 633 121 163 180 207
327 633 122 157 171 197
326 634 121 149 171 202
326 634 122 169 180 205
326 635 122 160 171 197
326 635 123 146 157 186
327 634 122 176 179 203
327 635 123 153 159 188
324 636 122 117 150 185
324 636 123 149 163 192
324 637 122 155 171 199
324 637 123 167 174 197
325 636 123 150 163 191
325 637 123 166 168 191
324 638 123 143 152 178
324 639 123 144 151 178
325 638 123 143 149 172
325 639 123 160 163 182
326 636 123 167 172 199
326 637 123 159 162 186
327 636 123 169 172 198
326 638 123 138 145 170
325 639 124 161 164 183
326 637 124 144 150 174
327 636 124 164 168 190
327 637 124 149 155 175
326 638 124 152 157 178
326 639 124 156 159 179
327 638 124 163 165 184
327 639 124 151 154 175
328 626 112 65 144 207
328 627 113 70 147 215
329 626 112 82 146 209
329 626 113 83 151 215
329 627 113 64 145 208
328 627 114 77 152 212
329 627 114 76 153 214
329 627 115 79 155 215
330 625 112 86 155 217
331 625 112 81 153 221
331 625 113 60 151 220
330 626 112 91 154 217
330 626 113 98 162 222
331 626 113 73 156 221
330 626 114 86 159 218
330 627 114 82 155 215
330 627 115 92 155 213
331 626 114 90 160 219
331 627 114 89 157 216
331 627 115 83 151 208
331 627 116 95 149 207
328 628 114 79 156 211
328 628 115 80 157 212
329 628 115 80 157 212
328 628 116 91 159 209
328 629 116 82 160 215
328 629 117 80 156 206
329 628 116 79 157 209
329 628 117 87 153 202
329 629 117 103 158 204
328 629 118 98 159 203
329 629 118 123 167 206
329 629 119 146 171 202
328 630 118 96 162 208
328 630 119 129 173 211
328 631 119 137 173 213
329 630 119 158 181 212
330 628 116 75 145 197
330 628 117 100 152 203
331 628 116 107 153 208
331 628 117 114 145 203
330 628 118 114 148 193
330 629 118 121 153 199
330 629 119 116 146 200
331 628 118 115 139 196
331 629 118 108 133 203
331 629 119 104 127 201
330 630 119 138 163 206
332 624 112 95 154 220
332 625 112 87 161 226
332 625 113 88 162 225
333 624 112 48 127 200
333 625 113 75 151 219
333 625 114 82 153 220
332 626 113 85 160 224
332 626 114 91 156 216
332 626 115 113 158 211
332 627 115 103 157 215
333 626 114 101 158 219
333 626 115 111 155 215
334 624 112 68 138 206
334 624 113 74 148 212
334 625 113 74 149 217
335 624 113 65 141 208
334 625 114 70 144 218
334 625 115 66 129 212
335 624 114 59 140 205
335 625 114 69 146 210
335 625 115 63 130 200
334 626 115 70 132 221
332 627 116 111 150 205
332 627 117 120 149 199
333 626 116 113 148 207
333 626 117 108 145 216
333 627 116 102 134 192
333 627 117 122 148 209
333 627 118 142 161 219
335 625 116 65 116 196
335 625 117 90 123 198
334 626 116 77 123 212
334 626 117 74 112 199
334 627 117 75 122 206
335 626 117 80 114 195
334 626 118 80 120 192
334 627 118 96 134 205
334 627 119 113 143 201
335 626 118 89 123 193
335 626 119 100 135 196
335 627 119 105 141 200
332 628 117 120 148 201
332 628 118 129 151 198
332 628 119 126 148 187
332 629 119 119 142 196
333 628 118 155 174 216
333 628 119 153 171 214
328 631 120 150 174 209
328 631 121 157 173 205
329 630 120 147 165 206
329 631 120 144 163 205
329 631 121 136 152 202
331 629 120 113 131 198
330 630 120 117 140 201
330 631 121 93 117 199
331 630 120 102 125 195
331 630 121 101 124 201
331 631 121 91 117 199
330 631 122 82 102 197
331 631 122 86 112 198
334 627 120 111 141 197
335 627 120 107 144 208
335 627 121 100 138 209
332 629 120 137 154 202
332 629 121 152 168 208
333 628 120 156 171 213
333 629 120 169 185 213
333 629 121 154 168 201
333 629 122 148 163 208
332 630 121 121 138 200
332 630 122 136 152 209
332 631 122 103 126 201
332 631 123 107 133 200
333 630 122 162 173 210
333 631 123 154 166 204
334 628 120 116 141 197
334 628 121 111 138 204
334 629 121 130 148 202
335 628 121 92 126 206
334 628 122 108 136 202
334 629 122 122 143 201
335 628 122 83 119 198
335 629 122 91 120 199
335 629 123 68 106 197
334 630 123 122 141 199
335 630 123 84 115 194
335 629 124 53 94 199
334 630 124 99 124 196
334 631 124 122 142 197
335 630 124 60 97 195
335 631 124 62 106 191
335 631 125 62 98 191
328 632 121 167 180 207
329 632 121 143 155 197
328 632 122 166 173 203
328 633 122 172 177 200
329 632 122 133 145 195
329 633 122 154 162 199
329 633 123 135 148 192
328 634 122 183 181 202
328 634 123 169 170 194
328 635 123 158 162 190
329 634 123 144 152 188
329 635 123 147 155 190
330 632 121 91 113 198
330 632 122 92 107 194
330 633 123 96 118 189
331 632 122 73 94 195
331 632 123 63 89 191
331 633 123 61 89 189
330 634 123 105 125 186
329 635 124 151 159 194
331 633 124 60 91 188
330 634 124 99 120 186
330 635 124 110 130 186
331 634 124 70 95 185
331 635 124 68 95 179
331 635 125 67 97 179
328 636 124 161 165 188
328 637 124 154 160 178
329 636 124 139 149 181
329 637 124 149 157 181
329 637 125 144 153 180
328 638 124 164 166 185
328 638 125 156 160 183
328 639 124 141 145 171
328 639 125 127 136 167
329 638 125 127 140 170
329 639 125 107 125 164
330 636 124 102 125 177
330 636 125 107 128 179
330 637 125 122 139 177
331 636 125 90 114 174
331 637 125 100 121 168
330 638 125 115 133 168
330 639 125 129 143 174
331 638 125 116 132 172
331 639 125 140 150 181
331 639 126 128 138 172
332 632 123 82 114 195
332 632 124 125 148 204
332 633 124 78 111 190
333 632 124 141 157 201
333 633 124 123 145 193
333 633 125 135 155 198
332 634 124 66 95 183
332 634 125 83 109 184
332 635 125 72 99 178
333 634 125 119 142 189
333 635 125 103 125 179
333 635 126 113 135 182
334 632 124 119 140 192
334 632 125 109 134 194
334 633 125 113 141 191
335 632 125 77 114 189
335 633 125 84 118 186
335 633 126 96 125 185
334 634 125 116 147 187
334 634 126 103 136 181
334 635 126 119 143 186
335 634 126 105 131 184
335 635 126 100 127 179
335 635 127 113 133 186
332 636 125 77 104 174
332 637 125 87 111 168
332 636 126 76 107 170
332 637 126 82 107 167
333 636 126 102 127 177
333 637 126 82 110 166
332 638 126 96 115 165
332 639 126 98 115 158
333 638 126 73 101 160
333 639 126 73 96 155
334 636 126 108 131 177
334 637 126 97 123 170
334 637 127 113 134 178
335 636 126 102 125 177
335 636 127 105 129 177
335 637 127 103 130 171
334 638 126 99 120 170
334 638 127 103 125 169
334 639 126 75 103 155
334 639 127 82 109 156
335 638 127 90 118 154
335 639 127 94 117 148
