ply
format ascii 1.0
comment Version 2, Copyright 2017, 8i Labs, Inc.
comment frame_to_world_scale 0.179523
comment frame_to_world_translation -45.2095 7.18301 -54.3561
comment width 1023
element vertex 318
property float x
property float y
property float z
property uchar red
property uchar green
property uchar blue
end_header
321 647 194 130 169 206
321 647 195 126 169 208
322 647 192 125 167 205
322 647 193 127 166 203
323 646 193 119 164 204
323 647 192 117 163 203
323 647 193 123 165 203
322 646 195 144 178 213
322 647 194 139 173 208
322 647 195 139 175 211
323 646 194 135 172 207
323 646 195 144 178 212
323 647 194 131 168 204
320 647 196 127 167 204
320 647 197 125 163 199
321 646 197 123 167 207
321 647 196 122 167 208
321 647 197 119 164 204
320 646 198 130 165 200
320 646 199 130 167 201
320 647 198 123 160 196
320 647 199 124 162 197
321 646 198 131 171 209
321 646 199 139 176 213
321 647 198 124 166 204
323 645 196 147 179 213
323 645 197 148 180 213
322 645 198 148 180 213
322 645 199 143 178 212
323 644 199 145 178 212
323 645 198 149 180 212
323 645 199 148 179 212
322 646 196 140 175 211
322 646 197 137 174 210
322 647 196 131 171 208
323 646 196 146 178 212
323 646 197 148 179 213
322 646 198 140 177 213
326 643 195 136 174 210
327 643 194 140 177 213
327 643 195 138 175 211
325 643 197 125 169 209
324 643 199 151 179 211
325 643 198 133 171 208
325 643 199 148 179 213
326 643 196 134 175 213
326 643 197 132 173 212
327 642 197 144 179 213
327 643 196 139 176 212
327 643 197 139 176 212
326 642 199 143 178 213
326 643 198 134 173 210
326 643 199 139 175 211
327 642 198 143 178 213
327 642 199 145 179 215
327 643 198 141 177 213
325 645 192 136 173 209
325 645 193 136 174 211
324 645 194 136 174 211
324 645 195 139 175 211
325 644 194 138 175 212
325 644 195 136 175 212
325 645 194 137 175 211
324 646 192 123 166 206
324 646 193 122 166 205
325 646 192 136 173 208
324 646 194 132 171 207
326 644 192 128 171 210
326 644 193 136 175 212
326 645 192 132 173 211
327 644 192 137 175 211
327 644 193 141 177 212
326 644 194 140 176 212
326 644 195 137 175 212
327 644 194 140 176 212
324 644 196 131 171 209
324 644 197 130 168 205
324 645 196 140 176 211
324 645 197 142 175 210
325 644 196 129 172 211
325 644 197 124 168 207
324 644 198 146 177 210
324 644 199 148 177 209
326 644 196 134 175 213
320 643 203 148 177 208
321 642 203 141 176 211
321 643 202 125 163 199
321 643 203 145 175 207
323 641 203 153 187 221
322 643 201 115 163 205
323 642 201 145 179 215
323 643 200 140 175 210
323 643 201 126 170 209
322 642 203 144 180 216
322 643 202 130 170 208
322 643 203 138 175 212
323 642 202 146 181 216
323 642 203 150 184 219
323 643 202 136 176 213
321 641 205 151 185 219
320 640 206 154 190 226
320 640 207 142 181 219
320 641 206 153 187 222
321 640 206 137 177 215
321 641 206 153 186 220
320 642 204 152 185 219
320 642 205 154 187 221
320 643 204 146 178 212
321 642 204 149 183 218
321 642 205 154 186 220
321 643 204 144 177 211
322 640 205 134 175 214
322 641 204 149 183 219
322 641 205 142 180 216
323 640 205 128 173 214
323 641 204 146 183 220
322 640 206 137 177 215
322 642 204 150 185 220
320 645 201 143 179 215
321 644 201 133 171 207
321 645 200 138 177 214
321 645 201 138 176 212
320 644 202 162 186 215
320 644 203 152 179 208
320 645 202 156 186 218
321 644 202 149 176 207
321 644 203 159 183 212
320 646 200 133 169 205
320 646 201 135 173 209
321 646 200 140 177 213
322 644 200 125 169 209
322 644 201 121 165 205
322 645 200 136 174 211
323 644 200 132 171 208
322 644 202 130 165 203
324 641 202 156 187 220
324 641 203 155 187 222
325 640 203 156 187 221
325 641 202 156 188 221
325 641 203 157 188 221
324 642 201 153 184 217
324 643 200 149 179 212
324 643 201 146 179 213
325 642 200 150 182 216
325 642 201 152 184 217
325 643 200 151 182 215
324 642 202 155 186 219
325 642 202 155 186 219
326 641 201 145 181 217
327 641 201 134 174 212
326 640 203 154 185 218
326 641 202 153 186 220
326 641 203 156 187 220
327 640 203 147 180 213
327 641 202 144 179 214
327 641 203 150 182 216
326 642 200 147 181 216
326 642 201 142 179 215
327 642 200 145 181 217
327 642 201 135 175 214
324 640 204 143 182 220
324 640 205 130 174 215
324 641 204 148 185 222
325 640 204 149 184 219
325 640 205 134 174 212
326 640 204 144 178 213
327 640 204 131 169 205
320 649 192 113 160 201
320 649 193 106 158 200
321 648 192 121 164 203
321 648 193 123 165 204
321 649 192 118 163 202
321 649 193 114 161 201
320 648 194 112 164 206
320 648 195 117 165 207
320 649 194 111 164 207
321 648 194 123 166 205
321 648 195 118 166 207
322 648 192 125 167 205
322 648 193 126 166 204
320 648 196 123 164 201
328 643 192 160 184 213
328 643 193 154 181 211
329 643 192 147 175 205
329 643 193 149 177 207
328 643 194 140 175 210
328 643 195 133 171 208
329 642 195 134 171 206
329 643 194 144 176 209
329 643 195 135 171 206
330 643 192 141 171 203
330 643 193 142 172 204
331 643 192 140 170 201
331 643 193 139 170 201
330 642 195 135 170 203
330 643 194 141 173 205
330 643 195 140 172 204
331 643 194 136 169 201
331 643 195 135 169 202
328 642 196 140 175 211
328 642 197 145 178 213
328 643 196 140 176 212
328 643 197 146 180 215
329 642 196 136 171 205
329 642 197 137 171 203
328 642 198 146 179 213
328 642 199 145 179 214
329 642 198 141 172 204
329 642 199 140 173 205
330 642 196 136 169 202
330 642 197 135 167 198
331 642 196 132 166 199
331 642 197 130 163 196
331 643 196 133 168 202
330 642 198 132 163 195
330 642 199 135 166 198
331 642 198 129 160 192
331 642 199 130 160 190
328 644 192 151 179 210
328 644 193 144 175 208
332 643 192 132 164 197
332 643 193 128 163 196
333 643 192 128 160 192
333 643 193 126 158 190
332 643 194 134 167 200
332 643 195 130 165 198
333 643 194 152 179 208
333 643 195 138 169 201
334 643 192 126 158 189
334 643 193 126 156 188
335 643 192 118 150 181
335 643 193 116 148 178
334 643 194 142 168 197
334 643 195 136 165 196
335 643 194 113 145 176
335 643 195 122 151 181
332 642 197 126 160 194
332 643 196 129 164 198
333 642 197 116 153 186
333 643 196 128 162 195
333 643 197 126 162 195
332 642 198 122 157 190
332 642 199 119 154 186
333 642 198 123 157 191
333 642 199 119 152 185
333 643 198 125 160 193
334 643 196 127 159 190
334 643 197 121 154 187
335 643 196 120 152 182
335 643 197 115 148 179
334 642 199 122 155 187
334 643 198 123 156 189
334 643 199 118 152 184
335 643 198 116 149 181
335 643 199 116 149 181
328 641 200 138 174 209
328 641 201 131 171 208
329 641 200 135 171 205
329 641 201 126 164 199
328 640 203 134 170 206
328 641 202 129 168 204
328 641 203 134 171 207
329 640 203 119 156 197
329 641 202 120 159 196
329 641 203 120 158 197
328 642 200 141 178 214
329 642 200 137 171 205
330 641 201 128 164 198
331 641 201 129 162 195
330 641 202 123 160 196
330 641 203 118 154 195
331 641 202 125 159 194
331 641 203 124 158 199
330 642 200 133 166 198
331 642 200 132 163 193
331 642 201 128 161 193
328 640 204 117 156 199
328 640 205 106 145 198
329 640 204 115 151 197
329 640 205 107 142 198
330 640 204 115 149 197
330 640 205 112 143 199
331 640 204 120 152 200
331 640 205 120 150 203
331 641 204 124 155 201
332 641 202 127 157 191
332 641 203 134 160 199
333 641 203 147 167 206
332 642 200 125 156 188
332 642 201 125 155 188
333 642 200 124 154 187
333 642 201 125 151 184
332 642 202 126 154 188
333 642 202 133 155 189
333 642 203 146 164 203
334 641 203 141 161 206
334 642 200 124 153 185
334 642 201 125 151 183
334 643 200 120 152 183
335 643 200 117 148 179
335 643 201 122 147 179
334 642 202 133 154 191
334 642 203 139 158 203
335 642 202 134 154 193
335 642 203 138 157 205
335 643 202 129 150 184
332 640 204 120 151 200
332 640 205 119 151 202
332 641 204 132 159 205
333 640 205 125 157 204
333 641 204 136 161 206
333 641 205 124 155 203
334 640 205 124 157 202
334 641 204 129 154 205
334 641 205 121 152 202
335 640 205 127 156 200
335 641 204 130 156 207
335 641 205 128 159 206
