ply
format ascii 1.0
comment Version 2, Copyright 2017, 8i Labs, Inc.
comment frame_to_world_scale 0.179523
comment frame_to_world_translation -45.2095 7.18301 -54.3561
comment width 1023
element vertex 296
property float x
property float y
property float z
property uchar red
property uchar green
property uchar blue
end_header
320 672 109 131 129 134
320 673 109 120 120 124
321 673 109 136 133 136
320 672 110 131 130 134
321 672 110 136 133 136
320 674 109 113 114 120
320 675 108 114 118 127
320 675 109 112 115 123
321 674 109 127 126 130
321 675 109 119 120 126
322 673 109 142 138 140
322 672 110 135 131 134
322 673 110 142 138 140
323 672 110 136 133 136
323 672 111 130 129 132
323 673 110 141 137 140
322 674 109 141 136 138
322 675 109 137 135 138
323 674 109 144 139 140
323 675 109 143 139 140
323 674 110 143 139 140
320 677 107 119 125 136
320 678 107 114 123 136
320 679 107 119 127 138
321 678 107 96 111 128
321 679 107 107 118 132
322 679 107 93 106 120
320 676 108 108 115 126
320 677 108 108 118 131
321 676 108 105 112 123
321 676 109 119 122 130
321 677 108 89 104 119
321 678 108 89 106 123
322 676 108 121 124 132
322 676 109 133 132 138
322 677 108 103 112 123
323 676 108 132 132 138
323 676 109 140 137 140
323 677 108 121 122 129
322 678 108 93 105 120
322 679 108 89 102 116
323 678 108 108 114 123
323 679 108 98 108 119
324 672 110 133 131 135
324 672 111 130 128 132
324 673 110 135 131 134
324 673 111 129 127 130
325 672 111 128 127 131
325 673 110 126 123 125
325 673 111 126 124 129
324 675 109 144 139 139
324 674 110 138 133 134
324 675 110 140 135 136
325 674 110 121 118 120
325 675 110 129 125 127
326 672 111 126 125 131
326 673 111 124 123 129
327 673 111 123 122 129
326 674 111 109 110 115
326 675 110 119 118 122
326 675 111 109 110 116
327 674 111 109 110 117
327 675 111 105 106 112
324 676 109 138 135 137
324 677 108 123 123 128
324 677 109 124 123 127
325 676 109 131 128 131
325 677 109 119 118 121
325 676 110 133 129 132
324 678 108 121 122 127
324 678 109 121 120 123
324 679 108 121 122 129
325 678 109 118 117 120
325 679 108 128 126 129
325 679 109 130 127 129
326 677 109 112 112 115
326 676 110 131 129 133
326 677 110 120 118 122
327 676 110 133 130 133
327 676 111 120 118 122
327 677 110 127 124 126
326 678 109 107 107 111
326 679 109 122 121 125
327 678 109 102 103 107
327 679 109 113 113 117
327 678 110 114 113 117
327 679 110 110 110 115
320 680 106 125 129 137
320 680 107 124 129 139
320 681 106 124 126 132
321 680 107 117 125 136
321 681 106 123 127 135
321 681 107 120 126 136
320 682 106 123 124 129
320 683 106 123 123 128
321 682 106 124 127 136
321 683 106 122 125 132
322 680 107 102 113 126
322 681 107 113 122 134
323 680 107 90 103 117
323 681 107 91 106 121
322 682 106 121 129 139
322 682 107 116 125 137
322 683 106 120 126 137
323 682 107 97 111 126
323 683 106 111 121 134
323 683 107 106 117 131
320 684 105 121 122 127
320 685 105 121 122 129
321 685 105 118 121 127
320 684 106 122 122 127
321 684 106 121 123 130
321 685 106 118 122 129
320 686 104 124 127 134
320 686 105 123 125 132
320 687 104 127 131 139
320 687 105 128 130 138
321 686 105 118 122 129
321 687 104 125 129 137
321 687 105 121 125 134
322 685 105 116 121 130
322 684 106 118 124 134
322 685 106 117 123 132
323 684 106 114 123 134
323 685 106 119 125 135
322 686 105 118 123 132
322 687 105 120 125 134
323 686 105 122 127 134
323 687 105 126 127 131
323 686 106 122 125 132
324 680 107 97 107 119
324 681 107 104 112 123
324 682 107 103 110 120
324 683 107 97 105 116
325 682 107 112 114 119
325 683 107 100 103 108
326 683 107 110 111 114
327 683 107 110 109 111
324 680 108 113 117 125
324 681 108 118 120 127
325 680 108 124 124 128
325 681 108 120 120 126
325 682 108 116 118 123
326 680 108 125 125 129
326 680 109 127 126 129
326 681 108 122 123 129
327 680 109 127 126 130
327 681 108 123 125 130
327 681 109 126 127 132
326 682 108 116 118 123
327 682 108 117 119 124
327 683 108 112 113 116
324 684 106 115 119 127
324 684 107 104 110 118
324 685 106 119 118 123
325 684 107 84 81 84
325 685 106 100 79 79
325 685 107 82 56 55
324 687 105 118 94 87
324 686 106 116 107 104
324 687 106 112 86 77
325 686 106 105 55 59
325 687 106 116 32 47
326 684 107 95 82 82
326 685 106 91 29 42
326 685 107 90 45 48
327 684 107 98 87 83
327 685 107 90 57 47
326 686 106 102 37 41
326 687 106 111 35 34
327 686 106 103 65 50
327 686 107 97 65 46
327 687 106 107 64 45
328 674 111 106 107 113
328 675 111 99 100 105
329 675 111 99 98 104
328 676 110 138 134 135
328 676 111 122 119 122
328 677 110 137 133 135
329 676 111 115 114 119
329 677 110 135 132 136
329 677 111 129 128 132
328 678 110 127 125 128
328 679 110 126 124 128
329 678 110 134 133 137
329 678 111 133 133 139
329 679 110 137 136 141
330 676 111 109 111 118
330 677 111 122 125 133
331 676 111 130 133 142
331 677 111 130 134 144
330 678 111 134 137 145
330 679 110 136 139 147
330 679 111 135 139 148
331 678 111 133 138 148
331 679 110 135 140 149
331 679 111 136 140 149
332 677 111 134 139 148
333 677 111 135 140 150
332 678 111 134 138 147
332 679 111 136 140 149
333 678 111 133 138 148
333 679 111 134 139 148
334 678 111 116 127 141
334 679 111 117 128 142
335 679 111 104 119 135
328 680 109 130 128 131
328 681 109 126 126 131
329 680 109 131 130 134
329 681 109 126 127 133
328 680 110 133 130 133
329 680 110 134 134 139
329 681 110 126 129 136
328 682 108 121 122 127
328 682 109 123 124 128
328 683 108 121 120 123
329 682 109 121 124 131
329 683 108 121 123 128
329 683 109 118 122 129
330 681 109 122 127 136
330 680 110 132 136 145
330 681 110 126 131 141
331 680 110 134 138 148
331 681 110 130 135 145
330 682 109 121 125 135
330 683 109 119 123 131
331 682 109 125 129 138
331 683 109 120 125 133
331 682 110 127 132 141
328 684 107 113 107 102
328 685 107 100 83 70
329 684 107 123 119 118
329 685 107 122 118 116
328 686 107 100 75 56
328 687 106 101 58 37
329 686 107 119 114 110
329 687 107 114 105 97
330 686 107 123 124 127
330 687 107 116 117 121
331 686 107 120 121 126
331 687 107 117 119 124
328 684 108 119 116 116
329 684 108 124 124 128
329 685 108 126 126 129
330 684 108 118 121 127
330 684 109 118 121 129
330 685 108 122 123 128
331 684 108 118 120 127
331 684 109 118 121 128
331 685 108 119 120 126
330 686 108 122 123 127
331 686 108 119 120 126
332 680 110 139 141 150
332 680 111 137 140 149
332 681 110 139 142 151
333 680 110 138 141 150
333 680 111 133 137 147
333 681 110 137 140 149
332 683 109 125 127 134
333 683 109 133 132 137
332 682 110 134 136 144
333 682 110 140 141 148
333 683 110 137 136 141
334 680 111 124 132 144
334 681 110 134 138 148
334 681 111 131 136 147
335 680 111 111 123 139
335 681 111 119 129 142
334 682 110 137 139 146
334 683 110 133 134 139
335 682 110 127 133 143
335 682 111 123 131 143
335 683 110 127 131 140
332 687 107 118 120 125
332 684 108 115 116 122
332 684 109 118 120 125
332 685 108 117 118 123
333 684 109 128 127 131
333 685 108 121 121 125
333 685 109 126 124 127
332 686 108 116 117 122
332 687 108 117 118 123
333 686 108 121 121 125
333 687 108 119 120 124
334 684 109 125 125 129
334 685 109 124 124 128
335 685 109 116 120 128
334 684 110 129 129 135
335 684 110 121 125 133
335 685 110 114 120 130
334 686 108 123 123 129
334 686 109 123 124 130
334 687 108 121 123 130
335 686 109 117 121 129
335 687 108 121 124 133
335 687 109 119 123 131
