ply
format ascii 1.0
comment Version 2, Copyright 2017, 8i Labs, Inc.
comment frame_to_world_scale 0.179523
comment frame_to_world_translation -45.2095 7.18301 -54.3561
comment width 1023
element vertex 322
property float x
property float y
property float z
property uchar red
property uchar green
property uchar blue
end_header
320 689 103 125 130 140
320 690 103 124 129 139
320 691 103 123 128 137
321 691 103 124 132 142
320 692 103 121 127 135
320 693 103 121 127 136
321 692 103 119 127 135
321 693 103 114 121 130
320 694 103 121 127 137
320 695 102 121 127 136
320 695 103 119 125 134
321 694 103 114 120 125
321 695 103 116 120 124
322 692 103 126 122 121
322 693 103 114 100 96
323 693 103 121 38 33
322 694 103 112 76 72
322 695 103 110 72 64
323 694 103 125 26 27
323 695 103 127 22 29
324 694 103 128 22 28
324 695 103 124 31 30
320 688 104 127 132 141
320 689 104 128 133 143
321 688 104 126 132 141
321 689 104 130 136 146
320 690 104 127 132 142
321 690 104 130 137 148
321 691 104 130 137 147
322 688 104 120 127 136
322 688 105 122 127 134
322 689 104 125 132 140
323 688 105 128 120 118
323 689 104 124 107 98
323 689 105 126 112 104
322 690 104 134 138 143
322 691 104 135 137 140
323 690 104 124 97 89
323 691 104 122 83 78
322 692 104 129 121 118
323 692 104 122 57 55
323 693 104 125 26 27
324 688 105 123 58 56
324 689 105 134 32 46
325 688 105 130 25 35
325 689 105 140 35 40
324 690 104 137 20 40
324 690 105 142 10 41
324 691 104 135 20 34
325 690 105 140 35 40
325 691 104 138 47 43
325 691 105 136 51 46
326 688 105 129 46 34
326 689 105 138 50 46
327 688 105 124 35 31
327 689 105 131 41 44
326 688 106 116 34 27
327 688 106 114 43 30
326 690 105 133 45 42
326 691 105 131 53 44
327 690 105 133 38 48
327 691 105 135 44 46
324 692 104 133 22 28
324 693 104 131 21 23
325 692 104 137 54 46
325 693 104 138 43 40
324 694 104 129 23 25
324 695 104 122 30 25
325 694 104 133 31 32
325 695 104 125 32 28
326 692 104 136 64 52
326 692 105 134 58 45
326 693 104 140 43 42
327 692 105 136 40 36
327 693 104 140 33 33
327 693 105 140 36 35
326 694 104 137 30 33
326 695 104 133 33 36
327 694 104 139 30 28
327 695 104 135 30 30
320 696 102 120 126 136
320 697 102 119 126 135
321 696 102 121 126 132
321 696 103 116 118 117
321 697 102 121 122 122
320 698 101 118 125 134
320 699 101 119 126 136
320 698 102 118 126 136
320 699 102 120 128 136
321 698 102 121 120 119
321 699 102 119 114 112
322 696 103 113 58 56
322 697 102 114 80 70
322 697 103 116 44 40
323 696 103 126 18 23
323 697 103 126 21 23
322 698 102 119 54 46
322 698 103 122 21 21
322 699 102 122 48 38
323 698 102 126 15 15
323 698 103 126 18 19
323 699 102 128 20 22
323 699 103 128 13 21
320 700 101 118 127 137
320 701 101 118 127 137
321 700 101 120 124 127
321 701 101 121 115 114
321 700 102 118 110 106
321 701 102 117 100 92
320 702 101 115 123 131
320 703 101 107 113 122
321 702 101 124 115 113
321 703 101 124 115 113
322 700 102 124 45 38
322 701 102 125 42 38
323 700 102 130 17 22
323 701 102 132 24 26
322 703 101 120 61 58
322 702 102 125 40 39
322 703 102 128 23 26
323 702 102 134 25 28
323 703 102 133 26 34
324 696 103 123 41 35
324 697 103 126 45 43
325 697 103 124 57 54
324 698 103 130 41 46
324 699 103 131 37 40
325 698 103 130 58 54
325 699 103 130 48 40
324 700 103 130 34 30
324 701 102 129 34 26
324 701 103 128 39 32
325 700 103 130 42 29
325 701 103 128 38 31
324 702 102 127 47 41
324 702 103 126 56 50
324 703 102 128 53 43
324 703 103 127 62 56
325 702 103 124 39 35
325 703 103 125 50 42
326 701 103 130 36 31
326 702 103 131 39 35
326 703 103 131 40 31
327 703 103 132 35 26
324 696 104 121 39 33
325 696 104 123 38 31
325 697 104 123 47 39
325 698 104 127 50 46
326 696 104 128 37 33
326 697 104 127 32 29
327 696 104 133 34 29
327 697 104 134 30 29
326 698 104 128 34 25
326 699 104 129 33 23
327 698 104 135 34 34
327 699 104 134 32 29
326 700 104 130 35 20
326 701 104 132 32 28
327 700 104 133 33 25
327 701 104 133 30 26
327 702 104 133 31 26
327 703 104 133 29 26
328 689 105 125 22 34
328 688 106 113 38 33
328 689 106 118 24 31
329 688 106 109 94 83
329 689 106 110 82 71
328 690 105 128 26 36
328 691 105 134 27 30
329 691 105 114 45 44
329 690 106 111 66 58
329 691 106 106 68 60
330 688 106 83 86 86
330 688 107 86 91 95
330 689 106 91 93 94
331 688 107 106 109 115
331 689 106 66 73 83
331 689 107 89 93 101
330 690 106 106 105 106
330 691 106 109 104 104
331 690 106 65 73 85
331 691 106 74 80 93
328 692 105 137 28 33
328 693 105 140 28 36
329 692 105 115 38 41
329 693 105 118 34 34
328 694 104 140 30 36
328 694 105 140 31 35
328 695 104 137 26 30
328 695 105 139 28 34
329 694 105 122 37 34
329 695 105 127 39 37
330 692 105 92 73 62
330 693 105 89 69 61
331 693 105 88 90 91
330 692 106 101 97 94
331 692 106 96 99 108
331 693 106 97 102 107
330 694 105 88 51 41
330 695 105 89 47 35
331 694 105 85 89 89
331 695 105 84 84 83
332 688 107 117 118 124
332 689 107 111 112 118
333 688 107 115 116 120
333 689 107 114 116 121
332 690 106 74 80 90
332 690 107 99 102 110
332 691 106 63 69 84
333 690 107 115 117 122
333 691 106 107 110 116
333 691 107 114 115 121
334 689 107 117 119 126
334 690 107 118 120 125
334 691 107 118 120 126
335 690 107 119 121 127
335 691 107 122 124 130
333 688 108 118 119 123
333 689 108 118 119 125
334 688 108 121 123 130
334 689 108 119 121 127
335 688 108 120 123 130
335 689 108 118 120 127
335 690 108 120 122 128
332 692 106 50 55 79
332 693 106 53 57 82
333 692 106 100 102 109
333 693 106 63 69 87
332 695 105 97 101 109
332 694 106 65 70 91
332 695 106 65 73 97
333 694 106 42 46 83
333 695 106 38 39 88
334 692 106 113 116 122
334 692 107 118 120 125
334 693 106 105 110 119
335 692 107 123 124 130
335 693 106 117 120 127
335 693 107 121 123 130
334 694 106 93 100 112
334 695 106 64 76 97
335 694 106 119 123 131
335 694 107 121 124 131
335 695 106 113 119 129
328 696 104 136 28 27
328 696 105 139 31 31
328 697 104 136 33 29
328 697 105 139 34 27
329 696 105 127 37 37
329 697 105 128 39 37
328 698 104 137 33 32
328 698 105 139 32 28
328 699 104 138 31 34
328 699 105 140 35 30
329 698 105 127 46 38
329 699 105 127 45 35
330 696 105 91 46 38
330 697 105 88 44 39
331 696 105 78 75 75
331 697 105 72 68 70
330 698 105 82 44 42
330 699 105 83 46 46
331 698 105 67 58 67
331 699 105 64 49 62
328 700 104 139 33 33
328 700 105 139 37 26
328 701 104 138 32 27
328 701 105 138 37 22
329 700 105 126 42 31
329 701 104 133 46 32
329 701 105 125 43 34
328 702 104 137 33 27
328 703 104 136 35 24
329 702 104 128 44 35
329 702 105 119 46 40
329 703 104 125 42 33
330 700 105 82 44 46
330 701 105 80 45 43
331 700 105 62 40 50
331 701 105 71 41 53
330 702 105 81 42 38
330 703 104 89 44 38
330 703 105 74 40 38
331 702 105 82 39 53
331 703 105 86 38 50
332 696 105 91 96 107
332 697 105 87 91 103
333 697 105 51 59 102
332 696 106 70 76 101
333 696 106 43 44 93
333 697 106 44 47 98
332 698 105 85 83 94
332 699 105 83 76 88
333 698 105 51 53 98
333 699 105 55 53 98
333 698 106 48 46 99
334 696 106 54 64 93
334 697 106 53 56 92
335 696 106 103 111 121
335 697 106 99 106 117
334 698 106 54 51 96
334 699 106 52 50 100
335 698 106 97 104 116
335 699 106 92 101 116
332 700 105 83 69 83
332 701 105 84 64 75
333 700 105 59 54 100
333 701 105 59 58 98
332 702 105 96 62 69
332 703 105 105 63 68
333 702 105 69 61 92
333 703 105 82 65 90
334 700 105 50 43 107
334 701 105 49 47 104
334 700 106 53 53 101
334 701 106 51 48 101
335 700 106 85 95 114
335 701 106 75 84 109
334 702 105 53 46 103
334 703 105 53 43 99
335 702 106 75 82 110
335 703 106 67 67 105
