ply
format ascii 1.0
comment Version 2, Copyright 2017, 8i Labs, Inc.
comment frame_to_world_scale 0.179523
comment frame_to_world_translation -45.2095 7.18301 -54.3561
comment width 1023
element vertex 98
property float x
property float y
property float z
property uchar red
property uchar green
property uchar blue
end_header
320 800 103 199 141 102
320 800 104 201 142 105
320 800 105 202 142 105
320 801 105 203 142 104
321 800 104 202 142 105
321 800 105 203 143 106
321 801 105 205 145 106
320 801 106 204 143 106
321 800 106 203 143 105
321 801 106 205 144 105
320 802 106 205 142 106
320 802 107 206 142 107
320 803 107 206 143 108
321 802 106 205 143 105
321 802 107 206 143 106
321 803 107 207 143 107
322 800 105 203 143 107
322 800 106 203 143 105
322 801 107 205 143 104
323 800 106 204 144 107
323 800 107 205 144 107
323 801 107 206 143 106
322 802 107 205 142 105
321 803 108 207 143 107
323 801 108 206 143 106
322 802 108 206 142 106
322 803 108 207 142 107
322 803 109 207 142 108
323 802 108 206 142 107
323 802 109 206 141 107
323 803 109 208 142 108
320 804 107 206 142 106
320 804 108 207 142 107
320 805 108 208 144 109
320 805 109 207 143 108
321 804 108 207 143 109
321 804 109 209 145 112
321 805 109 210 145 112
321 805 110 209 145 110
320 806 109 204 138 101
320 806 110 206 140 105
320 807 110 209 145 110
321 806 110 207 143 107
321 807 110 210 146 111
321 807 111 212 148 113
322 804 109 209 144 112
323 804 109 208 143 110
322 804 110 209 145 111
322 805 110 209 145 111
323 804 110 208 143 110
323 805 110 210 145 110
323 805 111 209 145 109
322 806 110 208 144 109
322 806 111 209 145 110
322 807 111 214 149 115
323 806 111 210 146 111
324 800 107 205 144 107
325 800 107 204 144 106
324 800 108 205 144 108
324 801 108 207 144 109
325 800 108 205 142 107
325 801 108 206 144 110
325 801 109 204 140 106
324 802 109 207 142 107
324 803 109 207 142 108
325 802 109 206 141 106
324 803 110 207 141 108
325 802 110 205 141 106
325 803 110 206 141 108
325 803 111 207 143 109
326 800 108 204 141 106
326 800 109 204 141 107
326 801 109 203 139 104
327 800 108 203 140 105
327 800 109 205 142 108
326 801 110 203 138 102
327 800 110 206 144 110
327 801 110 204 141 105
326 802 110 205 140 105
326 802 111 205 141 107
326 803 111 207 143 109
327 802 111 205 141 105
324 804 110 206 142 108
324 804 111 208 144 109
324 805 111 209 146 111
325 804 111 208 145 110
320 808 110 212 148 113
320 808 111 215 150 115
321 808 111 213 148 113
328 800 109 205 143 108
328 800 110 205 143 109
328 801 110 204 141 106
328 801 111 203 141 106
329 800 110 205 143 109
329 800 111 203 142 107
329 801 111 202 139 104
328 802 111 203 140 104
330 800 111 202 140 105
