ply
format ascii 1.0
comment Version 2, Copyright 2017, 8i Labs, Inc.
comment frame_to_world_scale 0.179523
comment frame_to_world_translation -45.2095 7.18301 -54.3561
comment width 1023
element vertex 158
property float x
property float y
property float z
property uchar red
property uchar green
property uchar blue
end_header
337 560 144 116 125 145
337 560 145 144 147 157
337 561 144 104 120 146
337 561 145 134 142 157
337 560 146 161 159 164
337 560 147 161 159 163
337 561 146 150 153 162
337 561 147 148 149 157
337 562 144 95 118 143
337 562 145 104 122 142
337 563 144 105 123 144
337 563 145 89 112 137
337 562 146 106 119 139
337 562 147 111 120 135
337 563 146 74 100 126
337 563 147 100 113 131
337 560 148 147 149 157
337 561 148 130 134 143
337 560 151 98 115 135
337 561 150 85 102 124
337 561 151 85 105 126
337 562 148 118 124 135
337 562 149 125 129 140
337 563 148 130 133 142
337 563 149 150 147 152
337 562 150 112 121 136
337 562 151 107 120 136
337 563 150 149 148 154
337 563 151 135 138 148
338 560 148 146 149 158
338 560 149 112 125 142
338 561 149 100 114 131
338 560 150 95 113 136
338 560 151 103 120 139
338 561 150 79 100 125
338 562 149 109 116 133
337 564 144 105 120 139
337 564 145 94 115 138
337 565 144 109 121 137
337 565 145 106 121 139
337 564 146 94 114 136
337 564 147 121 128 141
337 565 146 113 124 140
337 565 147 139 140 148
337 566 144 127 132 142
337 566 145 111 122 137
337 567 144 148 146 151
337 567 145 121 127 139
337 566 146 112 121 135
337 566 147 135 136 144
337 567 146 112 121 135
337 567 147 127 130 139
337 564 148 154 149 151
337 564 149 165 156 153
337 565 148 159 153 154
337 565 149 166 156 153
337 564 150 162 155 155
337 564 151 148 145 149
337 565 150 160 153 152
337 565 151 147 143 145
336 567 149 134 131 133
337 566 148 154 149 151
337 566 149 159 152 151
337 567 148 141 139 144
337 567 149 145 141 143
336 566 151 125 125 129
336 567 150 130 127 130
336 567 151 137 136 141
337 566 150 150 145 146
337 566 151 133 131 134
337 567 150 131 129 132
337 560 152 112 125 143
337 560 153 128 134 147
337 561 152 106 120 138
337 561 153 127 134 147
336 560 154 143 144 151
336 560 155 150 150 156
336 561 154 140 142 149
336 561 155 146 146 152
337 560 154 140 143 151
337 561 154 139 141 149
337 562 152 112 125 142
337 562 153 129 138 153
337 563 152 122 132 147
337 563 153 122 134 150
336 562 154 135 139 149
336 562 155 140 141 149
336 563 154 128 135 149
336 563 155 131 137 147
336 560 156 151 152 160
336 561 156 149 149 157
336 564 153 106 118 133
336 565 152 121 124 132
336 565 153 110 118 131
337 564 152 125 130 140
337 564 153 109 120 135
337 565 152 127 128 134
336 564 154 118 128 144
336 564 155 122 132 147
336 565 154 118 128 144
336 565 155 119 130 147
336 566 152 130 130 137
336 566 153 129 133 143
336 567 152 148 148 154
336 567 153 139 141 150
337 566 152 124 124 130
336 566 154 117 125 140
336 567 154 117 122 135
336 568 144 158 152 152
336 568 145 133 134 141
336 569 144 155 150 151
336 569 145 135 135 141
337 568 144 150 147 150
337 568 145 128 131 140
336 568 146 114 122 136
336 568 147 120 125 136
336 569 146 117 124 137
336 569 147 116 124 137
337 568 146 116 124 137
336 570 144 147 142 142
336 570 145 120 122 128
336 571 144 142 136 137
336 571 145 116 120 128
336 570 146 110 118 130
336 570 147 106 119 134
336 571 146 114 124 138
336 571 147 103 118 136
336 568 148 125 127 134
336 568 149 126 123 126
336 569 148 119 125 136
336 569 149 129 129 136
336 568 150 139 134 135
336 568 151 152 149 152
336 569 150 146 142 145
336 569 151 152 150 154
336 570 148 104 117 134
336 570 149 110 118 132
336 571 148 88 108 130
336 571 149 88 107 128
336 570 150 112 119 130
336 570 151 105 114 130
336 571 150 88 105 126
336 571 151 80 97 120
336 572 144 149 142 141
336 572 145 123 127 137
336 573 144 145 140 140
336 573 145 126 129 138
336 572 146 123 133 147
336 572 147 109 124 142
336 573 146 123 131 145
336 572 148 91 112 133
336 572 149 91 111 132
336 568 152 152 151 156
336 568 153 137 139 150
336 569 152 145 145 152
336 569 153 135 138 147
336 568 154 117 122 135
336 570 152 114 123 139
