ply
format ascii 1.0
comment Version 2, Copyright 2017, 8i Labs, Inc.
comment frame_to_world_scale 0.179523
comment frame_to_world_translation -45.2095 7.18301 -54.3561
comment width 1023
element vertex 454
property float x
property float y
property float z
property uchar red
property uchar green
property uchar blue
end_header
352 624 113 82 113 148
352 625 112 100 125 161
352 625 113 89 117 155
353 624 113 66 101 140
353 625 112 93 121 157
353 625 113 71 104 141
353 624 114 69 104 140
352 626 112 104 128 167
353 626 112 106 130 167
353 627 112 104 130 168
354 624 113 59 98 136
354 625 112 81 115 152
354 625 113 65 104 141
355 625 113 54 99 138
354 624 114 70 105 138
354 624 115 89 118 145
355 624 114 78 111 141
355 624 115 98 125 151
355 625 114 71 106 138
354 626 112 92 122 158
354 627 112 98 127 165
355 626 112 77 112 150
355 627 112 103 133 168
352 628 112 119 140 195
352 629 112 132 140 197
353 628 112 101 125 190
353 629 112 113 129 196
352 630 112 144 147 199
352 631 113 169 172 207
353 630 112 132 139 198
353 631 112 148 151 201
353 631 113 173 173 210
352 631 114 179 180 207
354 629 112 107 134 197
354 630 112 121 137 199
354 631 112 140 141 199
354 631 113 157 155 199
355 630 112 114 138 194
355 631 112 127 136 197
356 625 113 72 108 142
357 625 113 80 113 142
356 624 114 93 122 149
356 624 115 112 136 160
356 625 114 86 118 146
357 624 115 118 138 158
357 625 114 99 125 149
357 625 115 109 130 151
356 626 112 69 109 147
356 626 113 69 107 142
356 627 112 91 126 162
357 626 113 78 114 147
357 627 112 81 118 156
358 624 115 118 138 160
358 625 114 105 128 152
358 625 115 114 134 155
359 625 115 115 135 157
358 626 113 90 121 150
358 627 112 82 118 153
358 627 113 82 117 150
359 626 113 100 126 153
359 627 112 85 118 153
359 627 113 100 127 154
358 626 114 104 127 150
359 626 114 108 129 151
356 624 116 122 142 164
357 624 116 134 149 169
358 624 116 129 146 165
359 624 116 124 143 165
359 624 117 129 146 166
359 625 116 117 140 163
357 628 112 99 131 166
356 631 112 117 138 197
357 631 112 116 141 190
358 628 112 94 126 162
359 628 112 87 119 157
359 629 112 90 120 160
353 632 113 196 195 217
352 632 114 185 185 208
352 632 115 184 183 206
353 632 114 202 200 217
353 632 115 194 195 212
353 633 114 209 207 221
353 633 115 201 202 218
354 632 113 183 182 210
355 632 113 155 155 200
355 633 113 183 183 214
354 633 114 202 199 218
354 633 115 201 201 217
355 633 114 191 191 217
354 634 115 182 184 206
355 634 114 179 182 210
355 634 115 182 184 211
355 635 115 196 196 218
352 632 116 186 185 210
352 632 117 179 182 195
352 633 116 177 181 203
352 633 117 169 175 195
353 633 116 184 189 208
352 633 118 165 170 194
352 633 119 158 166 186
353 634 116 171 178 197
353 634 117 175 182 204
352 634 118 143 157 177
352 634 119 150 162 183
353 634 118 168 176 193
353 634 119 180 184 204
353 635 119 197 196 216
354 634 116 187 190 211
354 635 116 200 200 219
354 635 117 196 196 212
355 635 116 204 201 218
355 635 117 200 196 209
354 635 118 199 197 214
354 635 119 188 187 204
355 636 117 204 198 215
354 636 118 185 186 196
354 636 119 163 169 202
355 636 118 187 187 213
355 636 119 165 171 208
355 637 119 134 146 194
356 632 112 130 135 199
356 632 113 144 146 200
356 633 113 159 161 206
357 632 112 123 139 195
357 633 112 131 141 198
357 633 113 140 139 200
357 634 113 163 163 201
357 635 113 177 176 201
356 634 114 174 174 206
356 634 115 180 182 210
356 635 114 177 176 205
356 635 115 201 200 218
357 635 114 186 185 206
357 635 115 198 195 213
358 632 112 125 154 193
358 633 112 131 154 194
359 633 112 141 163 196
358 634 112 161 171 202
358 634 113 170 175 203
358 635 113 181 181 205
359 634 112 165 171 197
359 635 113 176 176 205
358 635 114 177 176 200
356 635 116 207 203 217
356 636 115 209 205 219
357 636 115 204 200 215
359 636 113 168 170 207
358 636 114 175 174 203
358 636 115 187 186 213
358 637 115 173 175 213
359 636 114 163 164 205
359 637 114 147 150 203
359 637 115 137 144 202
356 636 116 209 204 217
356 636 117 204 199 215
356 637 117 202 199 217
357 636 116 208 203 216
357 637 116 194 193 207
357 637 117 199 198 214
356 636 118 179 182 202
356 637 118 182 186 211
356 637 119 145 160 199
357 637 118 194 197 213
356 638 119 148 162 207
357 638 118 174 181 212
357 638 119 141 156 204
358 637 116 172 177 211
358 637 117 154 164 203
359 637 116 129 140 201
358 638 117 130 142 202
359 638 116 123 134 204
359 638 117 113 131 201
358 638 118 131 144 204
358 638 119 129 144 205
358 639 119 113 132 198
359 638 118 112 131 201
359 639 118 103 131 184
359 639 119 127 145 199
352 633 120 186 187 208
352 634 120 170 175 196
352 634 121 179 182 207
352 635 121 170 175 205
353 634 120 187 189 213
353 635 120 184 185 206
353 635 121 173 178 203
352 634 122 167 174 203
352 635 122 151 160 192
352 635 123 134 143 183
354 635 120 175 178 199
353 636 121 161 167 204
352 636 122 139 148 188
352 636 123 130 133 181
353 636 122 150 159 197
353 636 123 133 143 187
353 637 122 144 151 201
353 637 123 130 141 191
353 638 123 123 134 183
354 636 120 144 152 194
354 636 121 144 151 201
354 637 120 137 143 202
354 637 121 135 140 199
355 637 120 125 136 194
355 637 121 129 142 193
354 637 122 135 142 200
355 638 121 120 134 198
354 638 122 123 134 194
354 638 123 125 137 185
355 638 122 115 130 192
355 638 123 127 138 189
355 639 122 122 137 193
355 639 123 124 138 187
352 636 124 116 103 165
352 637 124 118 113 165
353 637 124 125 131 177
352 638 125 83 81 128
352 639 125 74 69 115
353 638 124 125 132 174
353 638 125 104 103 148
353 639 125 89 93 132
352 638 126 76 64 112
352 639 126 105 94 129
354 638 124 136 144 180
354 639 124 135 143 175
354 639 125 121 129 157
355 639 124 124 137 176
356 638 120 122 139 200
356 638 121 114 130 197
356 639 121 116 134 198
357 638 120 127 143 202
357 639 120 119 137 203
357 639 121 111 132 199
356 639 122 117 135 197
357 639 122 116 136 200
358 639 120 113 131 200
360 625 115 109 131 153
360 627 113 105 128 156
361 627 113 112 131 157
360 626 114 112 132 154
360 626 115 109 129 151
360 627 114 114 133 156
361 626 114 110 129 150
361 626 115 106 126 148
361 627 114 110 129 151
362 626 115 103 124 146
362 627 114 113 131 152
362 627 115 98 124 149
363 627 115 100 124 149
360 624 116 120 141 164
360 624 117 124 143 165
360 625 116 119 141 164
361 624 117 121 143 168
361 625 116 111 136 161
361 625 117 115 139 164
360 624 118 125 144 166
361 624 118 120 141 164
361 624 119 114 136 159
361 626 116 109 130 151
362 625 117 109 133 158
363 625 117 51 112 150
362 624 118 113 136 161
362 624 119 100 131 160
362 625 118 104 132 159
363 624 119 95 125 153
363 625 118 88 123 152
363 625 119 93 122 149
362 626 116 99 124 148
362 626 117 100 126 151
363 626 116 83 117 147
363 626 117 69 115 148
363 627 116 94 121 147
360 628 112 81 113 154
360 628 113 82 115 151
360 629 112 75 107 154
361 628 112 87 117 154
361 628 113 102 127 156
361 629 112 73 108 151
360 630 112 73 107 155
361 630 112 63 100 153
362 628 113 101 125 154
362 629 112 78 111 152
362 629 113 90 118 153
363 628 113 99 124 150
363 629 113 86 119 151
362 628 114 105 127 152
363 628 114 109 130 152
362 630 112 63 102 150
362 631 112 56 94 153
363 630 112 62 105 147
363 630 113 72 111 147
363 631 112 53 96 149
364 627 115 106 131 155
364 625 118 77 116 149
364 625 119 93 127 156
365 625 119 92 125 154
364 626 117 73 118 152
364 627 116 100 131 160
365 626 117 87 126 159
365 627 116 113 135 158
365 627 117 106 131 156
364 626 118 70 120 157
365 626 118 86 126 159
365 626 119 86 119 148
366 627 117 110 133 157
367 627 117 109 134 158
366 626 118 84 120 150
366 626 119 78 118 150
367 626 118 84 120 151
367 626 119 76 116 148
367 627 118 99 129 156
364 629 113 79 119 151
364 628 114 119 137 157
364 628 115 112 132 153
364 629 114 100 125 151
365 628 114 105 127 150
365 628 115 108 129 151
365 629 114 52 97 136
364 630 112 60 105 144
364 630 113 52 106 146
364 631 112 60 101 148
365 630 113 51 92 141
365 631 112 61 103 145
365 631 113 47 103 146
366 628 115 93 119 144
366 629 114 21 92 134
366 629 115 57 103 134
367 629 115 59 106 138
366 630 113 49 84 144
366 631 112 56 102 152
366 631 113 37 97 142
367 631 113 34 93 135
366 630 114 35 84 138
367 630 114 27 92 133
367 631 114 31 95 133
365 628 116 121 141 163
366 628 116 106 129 152
366 628 117 113 134 156
367 628 116 97 124 149
367 628 117 108 133 158
367 629 116 88 118 144
362 624 120 101 131 158
363 624 120 86 122 153
363 624 121 84 122 154
363 624 122 76 119 153
364 624 120 98 128 156
364 624 121 86 123 153
364 625 120 108 134 161
365 624 121 93 123 151
365 625 120 98 126 154
365 625 121 90 120 148
364 624 122 80 118 149
364 624 123 77 114 144
365 624 122 85 117 145
365 624 123 79 114 144
366 625 120 93 123 150
366 625 121 89 119 147
367 625 120 86 123 154
367 625 121 77 113 143
366 624 122 81 113 140
366 624 123 83 114 141
366 625 122 83 114 141
367 624 123 75 108 137
367 625 122 79 114 143
367 625 123 77 112 142
367 626 120 75 115 146
365 624 124 79 114 143
366 624 124 83 115 142
366 624 125 85 118 146
367 624 124 75 109 138
367 624 125 84 115 142
360 633 112 157 171 203
360 634 112 157 163 195
360 635 112 146 150 192
360 635 113 146 152 193
361 634 112 145 161 204
361 635 112 127 139 194
362 632 112 60 95 158
362 633 112 71 111 186
363 632 112 59 98 159
363 633 112 50 99 174
362 634 112 86 120 194
362 635 112 99 120 194
363 634 112 74 108 189
363 635 112 97 124 195
360 636 113 157 165 206
360 637 113 174 176 211
361 636 112 144 154 203
361 636 113 155 163 205
361 637 113 171 172 207
360 636 114 168 171 212
360 637 114 160 163 205
360 637 115 137 145 200
361 637 114 175 175 205
360 638 115 146 154 201
361 638 114 171 174 202
361 638 115 181 183 204
362 636 112 131 141 196
362 636 113 148 155 203
362 637 113 157 158 202
363 636 112 121 137 193
363 637 113 138 144 198
362 638 114 160 161 198
362 638 115 171 174 199
362 639 115 174 177 202
363 638 114 148 149 199
363 639 114 154 156 197
363 639 115 166 169 200
360 638 116 153 161 204
360 638 117 143 161 199
360 639 117 197 197 214
361 638 116 196 193 210
361 639 116 199 198 212
361 639 117 203 200 213
360 639 118 181 187 210
360 639 119 179 183 214
362 639 116 195 194 211
364 632 112 65 101 156
364 633 112 49 96 162
365 632 112 66 102 149
365 633 112 48 93 153
364 634 112 75 108 178
364 635 112 94 127 189
365 634 112 62 101 165
365 635 112 84 118 183
366 632 112 51 97 141
366 633 112 51 99 147
367 632 112 41 92 135
367 632 113 34 90 132
367 633 112 51 97 142
366 634 112 45 96 152
366 635 112 70 111 169
367 634 112 52 99 149
367 635 112 92 127 171
364 636 112 104 127 194
364 637 112 111 128 196
364 637 113 119 131 195
365 636 112 84 117 190
365 637 112 94 120 196
365 637 113 107 125 196
364 638 113 126 134 196
365 638 113 111 125 196
365 639 113 114 128 198
364 638 114 136 141 197
364 639 114 149 155 199
364 639 115 165 170 202
365 639 114 132 142 198
366 636 112 74 113 185
366 637 112 82 117 192
367 636 112 77 119 177
367 637 112 73 113 186
366 638 112 84 118 195
366 638 113 90 118 197
366 639 113 98 124 200
367 638 112 72 111 191
367 639 113 84 119 197
