ply
format ascii 1.0
comment Version 2, Copyright 2017, 8i Labs, Inc.
comment frame_to_world_scale 0.179523
comment frame_to_world_translation -45.2095 7.18301 -54.3561
comment width 1023
element vertex 144
property float x
property float y
property float z
property uchar red
property uchar green
property uchar blue
end_header
353 787 128 224 162 121
353 787 129 225 163 121
355 785 128 223 161 118
355 785 129 223 159 117
354 786 128 222 159 118
354 786 129 222 161 118
354 787 129 223 162 121
355 786 128 223 160 118
355 786 129 222 160 116
354 787 130 224 162 121
354 787 131 225 162 122
355 786 130 223 161 118
355 786 131 223 159 118
355 787 131 224 161 120
354 787 132 225 161 121
354 787 133 222 159 121
355 786 132 223 158 120
355 786 133 222 158 119
355 787 132 224 160 120
354 787 134 221 158 117
354 787 135 219 157 116
355 786 134 220 157 117
355 786 135 219 156 116
352 788 128 225 162 121
352 788 129 225 161 119
352 789 129 226 161 120
353 788 128 225 162 120
353 788 129 225 161 120
352 788 130 226 161 120
352 789 130 225 160 120
352 789 131 226 160 121
353 788 130 225 160 121
353 788 131 225 160 121
354 788 131 226 162 123
352 789 132 225 159 119
352 789 133 223 158 118
353 788 132 226 161 120
353 788 133 223 160 118
352 789 134 220 155 116
352 789 135 217 153 115
353 788 134 220 157 116
353 788 135 219 156 117
354 788 132 227 162 121
354 788 133 223 161 120
354 788 134 221 159 117
354 788 135 219 156 115
356 784 128 220 159 118
356 784 129 223 160 119
356 785 128 223 163 118
356 785 129 223 160 119
357 784 128 217 158 115
357 784 129 221 160 121
356 785 130 223 160 119
356 785 131 224 159 121
357 784 130 223 163 121
357 784 131 224 161 122
356 786 131 223 158 120
358 784 130 222 164 117
358 784 131 224 162 118
356 785 132 223 157 125
356 785 133 221 154 120
357 784 132 224 161 122
357 784 133 221 156 118
357 785 132 223 158 124
357 785 133 221 154 119
356 785 134 220 154 120
356 785 135 220 156 118
357 784 134 218 155 114
357 784 135 217 157 114
357 785 134 219 153 116
357 785 135 218 156 118
356 786 132 223 157 123
356 786 133 221 155 118
356 786 134 220 154 119
358 784 132 223 163 119
358 784 133 219 157 115
358 784 134 217 155 113
358 784 135 217 156 113
353 787 136 218 156 119
353 787 137 217 155 120
352 787 139 212 150 116
353 787 138 214 152 117
353 787 139 212 151 115
355 785 137 216 155 117
355 785 138 214 154 118
355 785 139 214 154 118
354 786 136 217 156 116
354 786 137 215 154 117
354 787 136 217 156 117
354 787 137 215 154 119
355 786 136 217 155 115
355 786 137 216 154 117
354 786 138 215 154 118
354 786 139 213 152 117
354 787 138 215 153 118
355 786 138 214 154 117
353 785 142 212 153 120
353 785 143 209 151 117
352 787 140 212 151 117
352 787 141 210 149 116
353 786 140 212 152 118
353 786 141 211 150 117
353 787 140 211 150 116
353 787 141 210 149 116
352 786 142 208 147 114
352 786 143 207 146 113
352 787 142 208 147 114
352 787 143 207 146 113
353 786 142 210 149 116
353 786 143 208 148 115
354 784 141 211 152 121
354 785 140 212 153 117
354 785 141 213 152 120
355 784 140 214 154 119
355 784 141 213 153 120
355 785 140 213 154 118
354 784 142 211 153 122
354 784 143 210 153 119
354 785 142 212 153 121
355 784 142 211 153 121
354 786 140 212 152 117
354 786 141 211 150 118
352 788 137 214 151 116
352 789 136 215 152 116
352 789 137 214 151 116
353 788 136 216 153 117
353 788 137 215 152 116
352 788 138 213 151 115
352 788 139 212 150 115
352 789 138 212 151 115
353 788 138 213 151 116
352 788 140 212 151 118
352 788 141 211 150 118
356 784 137 214 154 115
356 785 136 218 158 117
356 785 137 215 155 116
357 784 136 216 156 116
357 784 137 215 154 116
356 784 138 213 154 115
356 784 139 213 153 115
356 785 138 214 153 116
357 784 138 214 154 114
358 784 136 216 156 113
356 784 140 214 153 118
