ply
format ascii 1.0
comment Version 2, Copyright 2017, 8i Labs, Inc.
comment frame_to_world_scale 0.179523
comment frame_to_world_translation -45.2095 7.18301 -54.3561
comment width 1023
element vertex 302
property float x
property float y
property float z
property uchar red
property uchar green
property uchar blue
end_header
352 656 126 97 107 126
352 657 126 77 93 115
353 656 126 83 98 121
353 657 126 83 98 119
352 658 125 92 103 120
352 659 125 118 120 129
353 658 125 105 113 127
353 659 125 126 127 134
354 656 126 79 97 123
354 657 126 86 101 123
355 656 126 82 100 126
355 657 126 82 99 123
354 658 125 100 109 126
354 659 125 119 122 131
355 658 125 86 100 122
355 659 125 95 105 120
352 663 123 112 111 116
353 663 123 117 115 118
352 660 124 130 126 129
352 661 124 129 125 127
353 660 124 132 129 130
353 660 125 131 129 132
353 661 124 131 128 129
352 662 124 123 120 124
352 663 124 114 113 117
353 662 124 130 126 129
353 663 124 121 119 121
354 660 124 129 127 130
354 660 125 127 126 132
354 661 124 130 128 131
355 660 125 122 124 132
355 661 124 130 129 134
355 661 125 128 128 134
354 662 124 131 129 133
354 663 124 125 123 127
355 662 124 132 131 137
355 663 124 122 123 130
357 657 125 82 97 120
356 656 126 82 100 124
356 657 126 75 94 121
357 656 126 82 99 123
357 657 126 79 96 121
356 658 125 82 98 124
356 659 125 85 98 118
357 658 125 85 100 123
357 659 125 90 101 118
358 656 125 91 105 126
358 657 125 92 104 124
359 656 125 95 109 128
359 657 125 100 111 129
358 656 126 93 107 128
358 658 125 95 105 124
358 659 125 109 115 127
359 658 125 116 122 135
359 659 125 127 129 139
356 660 125 118 120 129
356 661 124 133 131 136
357 660 125 120 121 129
357 661 124 133 131 136
356 662 124 130 130 136
356 663 124 116 119 130
357 662 124 124 125 133
357 663 124 106 111 123
358 660 124 137 134 138
358 660 125 127 127 133
358 661 124 131 129 134
359 660 124 130 129 134
359 660 125 131 131 136
359 661 124 123 122 128
358 662 124 113 116 126
358 663 124 108 114 127
359 662 124 117 119 128
359 663 124 120 123 133
352 664 123 118 116 122
352 665 122 104 104 111
352 665 123 115 114 120
353 664 123 127 124 127
353 665 123 127 125 127
352 667 121 93 93 107
352 666 122 101 101 108
352 667 122 94 94 105
353 666 122 116 114 118
353 666 123 125 121 124
353 667 122 105 105 114
354 664 123 131 128 131
354 665 123 133 130 133
355 665 123 129 128 133
354 666 122 119 116 120
354 666 123 124 121 124
354 667 122 111 110 115
354 667 123 113 111 115
355 666 123 122 120 124
355 667 122 110 108 112
355 667 123 117 115 119
354 664 124 130 128 133
355 664 124 127 128 136
355 665 124 129 129 136
352 668 121 86 89 107
352 669 121 80 86 106
353 668 121 91 95 110
353 669 121 83 91 108
353 668 122 100 104 113
352 670 120 73 86 105
352 671 120 77 91 107
353 670 120 69 84 102
353 670 121 78 89 105
353 671 120 80 91 108
354 669 121 96 100 111
354 668 122 104 105 112
354 669 122 98 100 108
355 668 122 113 112 116
355 669 122 108 108 113
354 670 121 102 104 116
354 671 120 90 96 111
354 671 121 101 104 118
355 670 121 110 109 118
355 671 121 106 107 117
355 670 122 111 110 118
356 665 123 138 134 136
356 666 123 142 138 139
356 667 123 134 130 132
357 666 123 148 143 144
357 667 123 142 137 139
359 665 123 147 143 144
358 666 123 149 144 145
358 667 123 145 140 140
359 666 123 148 143 145
359 667 123 147 141 143
356 664 124 125 126 135
356 665 124 139 136 139
357 664 124 125 127 136
357 665 124 146 143 146
358 664 124 133 133 141
358 665 124 147 143 145
359 664 124 142 139 144
359 665 124 146 142 143
356 668 122 125 120 121
356 668 123 129 125 126
356 669 122 117 114 116
357 668 123 135 129 130
357 669 122 126 120 120
357 669 123 131 126 126
356 671 121 109 108 114
357 671 121 114 112 116
356 670 122 115 112 116
356 671 122 114 111 114
357 670 122 123 119 119
357 671 122 118 115 117
358 668 123 139 134 134
358 669 122 131 126 126
358 669 123 135 129 130
359 668 123 144 138 139
359 669 123 139 134 135
358 671 121 116 113 115
358 670 122 130 125 125
358 671 122 124 120 121
359 670 122 134 129 130
359 670 123 135 130 131
359 671 122 129 124 124
360 656 125 109 118 135
360 657 125 97 109 127
361 656 125 86 95 115
361 657 124 100 108 126
361 657 125 101 109 127
360 658 125 101 110 126
360 659 125 112 119 131
361 658 124 100 108 126
361 658 125 100 108 126
361 659 124 107 114 128
362 656 124 30 58 91
362 656 125 39 57 90
362 657 124 55 71 97
363 656 124 73 91 116
363 657 124 54 72 102
362 658 124 88 98 120
362 659 124 97 107 123
363 658 124 53 67 99
363 659 124 81 89 109
362 663 123 126 127 134
363 662 123 97 107 129
363 663 123 116 123 140
360 660 124 128 129 137
360 660 125 116 120 130
360 661 124 130 130 137
361 660 124 130 132 141
361 661 124 138 137 143
360 662 124 129 129 136
360 663 124 126 126 131
361 662 124 133 131 136
361 663 124 129 126 130
362 660 124 109 115 127
362 661 124 124 127 135
363 660 124 105 110 124
363 661 124 103 111 126
362 662 124 130 131 140
362 663 124 126 127 135
363 662 124 101 111 129
364 656 124 101 112 136
364 657 124 98 107 131
365 656 124 109 121 143
365 657 124 108 118 139
364 658 124 71 80 108
364 659 124 67 77 100
365 658 124 106 114 134
365 659 124 101 110 129
366 656 124 136 144 161
366 657 124 134 140 156
367 656 124 159 159 170
367 657 124 158 157 169
366 658 124 129 135 150
366 659 124 114 121 138
367 658 124 157 156 167
367 659 124 142 144 156
364 662 123 106 114 138
364 663 123 102 112 137
365 663 123 112 118 142
366 663 123 109 117 138
367 663 123 116 119 143
364 660 124 80 88 107
364 661 124 100 106 124
365 660 124 87 98 119
365 661 124 92 98 123
364 662 124 105 112 133
365 662 124 107 112 140
366 660 124 106 114 137
366 661 124 104 111 139
367 660 124 126 131 152
367 661 124 115 119 146
366 662 124 106 114 139
366 663 124 108 116 138
367 662 124 114 118 144
367 663 124 112 117 141
360 664 123 146 142 144
360 665 123 148 143 145
361 664 123 145 140 143
361 665 123 151 145 147
360 666 123 149 143 146
360 667 123 150 144 145
361 666 123 151 145 147
361 667 123 152 145 147
362 664 123 144 142 147
362 665 123 148 143 147
363 664 123 128 132 143
363 665 123 142 140 147
362 666 123 149 144 145
362 667 123 152 145 147
363 666 123 147 143 146
363 667 123 153 147 148
360 664 124 143 140 143
360 668 123 148 142 142
360 669 123 146 140 140
361 668 123 151 145 146
361 669 123 150 144 144
360 670 122 139 133 134
360 670 123 143 136 136
360 671 122 138 131 129
361 670 122 149 141 140
361 670 123 151 143 143
361 671 122 146 138 136
362 668 123 156 148 149
362 669 123 158 150 150
363 668 123 161 153 153
363 669 123 163 155 155
362 670 123 158 149 149
362 671 122 154 145 145
362 671 123 159 150 149
363 670 123 164 155 153
363 671 122 162 153 152
363 671 123 164 155 153
364 664 123 105 114 136
364 665 123 119 123 139
365 664 123 109 117 139
365 665 123 105 112 134
364 666 123 135 134 144
364 667 123 147 144 150
365 666 123 105 112 134
365 667 123 121 125 142
366 664 123 112 117 138
366 665 123 114 118 137
367 664 123 112 116 137
367 665 123 113 117 135
366 666 123 108 113 135
366 667 123 103 110 134
367 666 123 113 116 134
367 667 123 111 114 132
367 664 124 112 116 137
364 668 123 157 151 154
364 669 123 164 156 156
365 668 123 141 140 151
365 669 123 155 150 156
364 670 123 167 158 157
364 671 123 166 158 158
365 670 123 160 153 156
365 671 123 158 151 156
366 668 123 117 122 141
366 669 123 138 137 150
367 668 123 113 117 134
367 669 123 128 128 142
366 670 123 152 148 157
366 671 123 159 154 160
367 670 123 140 138 149
367 671 123 156 152 158
