ply
format ascii 1.0
comment Version 2, Copyright 2017, 8i Labs, Inc.
comment frame_to_world_scale 0.179523
comment frame_to_world_translation -45.2095 7.18301 -54.3561
comment width 1023
element vertex 378
property float x
property float y
property float z
property uchar red
property uchar green
property uchar blue
end_header
359 640 119 168 177 217
355 640 123 116 132 180
353 640 125 58 61 103
352 640 126 125 124 147
352 640 127 149 152 171
352 641 127 136 144 165
353 640 126 73 72 110
353 641 126 82 89 121
352 642 127 118 132 161
352 643 127 112 128 158
353 642 126 83 93 122
353 642 127 116 125 149
353 643 127 110 123 148
354 640 125 92 104 134
354 641 125 49 68 104
355 640 124 125 136 174
355 640 125 127 134 163
355 641 124 117 126 169
355 641 125 101 113 146
354 641 126 57 62 100
355 642 125 75 86 124
355 643 125 60 74 112
354 642 126 56 62 100
354 643 126 61 69 98
354 643 127 93 106 129
355 643 126 36 48 85
353 644 127 108 123 150
353 645 127 106 121 148
354 644 126 60 70 93
354 644 127 88 100 124
354 645 127 98 110 134
355 644 126 51 63 85
355 645 126 53 67 85
355 645 127 61 75 97
354 646 127 104 115 143
354 647 127 104 115 142
355 646 127 58 74 98
355 647 127 67 84 112
357 640 121 89 118 187
356 640 123 108 129 185
357 640 122 103 128 191
357 640 123 120 138 195
357 641 122 107 129 192
357 641 123 128 144 194
357 642 123 119 135 182
358 640 120 130 145 208
358 640 121 100 125 196
358 641 121 95 123 193
359 640 120 144 156 209
359 640 121 113 134 197
359 641 121 96 122 192
358 641 122 103 126 190
358 642 122 120 139 191
358 642 123 124 140 188
358 643 123 119 136 180
359 642 122 120 140 192
359 643 122 144 157 195
359 643 123 133 148 189
356 640 124 108 124 172
356 641 124 117 130 175
356 642 124 114 127 161
356 642 125 108 121 151
356 643 125 72 90 122
357 642 124 118 131 171
357 643 124 111 126 163
357 643 125 98 114 142
358 643 124 108 126 171
359 644 123 131 145 185
359 645 123 126 142 183
356 644 125 22 51 82
357 644 124 101 116 148
357 644 125 53 75 105
357 645 125 30 53 84
356 644 126 25 50 75
356 645 126 41 61 77
357 645 126 42 59 78
357 646 125 32 52 80
356 646 126 41 61 78
356 647 126 38 56 79
356 647 127 45 62 89
357 646 126 41 57 76
357 647 126 40 57 73
358 644 124 107 122 162
358 645 124 100 114 152
358 645 125 69 87 124
359 644 124 113 127 172
359 645 124 105 120 163
358 646 125 37 63 101
358 647 125 23 57 87
359 646 124 100 116 154
359 646 125 69 92 129
359 647 124 105 124 157
359 647 125 76 100 132
358 647 126 35 60 79
353 649 127 128 136 152
352 650 127 133 136 146
352 651 127 134 135 145
353 650 127 127 133 147
353 651 127 125 130 144
354 648 127 102 115 139
354 649 127 105 118 140
355 648 127 91 104 132
355 649 127 100 112 141
354 650 127 110 122 143
354 651 127 111 122 143
355 650 127 94 107 137
355 651 127 93 109 137
352 652 127 107 114 129
352 653 127 82 95 121
353 652 127 94 108 128
353 653 127 77 95 124
352 654 127 82 95 122
352 655 126 115 120 135
352 655 127 103 112 130
353 654 127 76 94 124
353 655 126 95 110 132
353 655 127 88 104 129
354 652 127 97 113 136
354 653 127 79 100 128
355 652 127 94 112 137
355 653 126 93 111 135
355 653 127 88 107 133
354 654 127 71 94 123
354 655 126 72 94 124
354 655 127 79 98 127
355 654 126 81 102 127
355 654 127 74 96 125
355 655 126 74 96 123
356 648 126 49 69 100
356 648 127 64 82 113
356 649 126 79 95 121
356 649 127 97 109 137
357 648 126 38 57 79
357 649 126 47 67 89
356 650 126 100 113 139
356 650 127 99 112 139
356 651 126 97 112 137
356 651 127 93 110 136
357 650 126 81 93 115
357 651 126 100 110 131
358 648 125 30 56 80
359 648 125 56 80 108
359 649 125 29 54 85
358 648 126 43 58 79
358 649 126 27 50 73
359 650 125 12 35 71
359 651 125 20 41 77
358 650 126 31 50 75
358 651 126 65 78 100
359 651 126 35 50 79
356 652 126 97 113 137
356 652 127 97 114 138
356 653 126 105 120 142
357 652 126 104 115 137
357 653 126 99 113 135
356 654 126 93 110 133
356 655 126 85 104 128
357 654 126 88 106 130
357 655 126 90 108 131
359 652 125 52 59 87
359 653 125 105 111 125
358 652 126 105 113 132
358 653 126 114 123 141
359 652 126 79 91 112
359 653 126 120 126 141
359 654 125 129 134 147
359 655 125 113 122 138
358 654 126 102 115 136
358 655 126 97 111 133
359 654 126 123 130 145
359 655 126 115 124 140
363 640 115 171 175 202
361 640 117 200 198 212
360 640 118 190 190 210
360 640 119 175 178 207
360 641 119 162 168 200
361 640 118 197 194 212
361 641 118 198 194 211
361 641 119 190 189 209
361 642 119 196 192 209
362 640 116 199 197 213
362 640 117 202 198 212
362 641 117 202 198 212
363 640 116 191 190 209
363 640 117 202 198 212
363 641 117 199 195 211
362 641 118 200 196 209
362 641 119 198 193 207
363 641 118 201 196 211
362 642 119 198 193 207
363 642 118 187 186 207
363 642 119 189 187 205
363 643 119 172 173 198
364 640 114 152 160 199
364 640 115 171 176 205
364 641 115 175 179 208
365 640 114 153 161 200
365 640 115 184 187 211
365 641 115 186 189 211
366 640 114 130 146 199
366 641 114 145 158 204
366 641 115 182 186 212
367 640 114 115 138 201
367 641 114 120 142 197
367 641 115 146 160 204
366 642 115 185 188 211
367 642 115 170 177 207
364 640 116 174 175 201
364 641 116 166 170 198
364 641 117 171 172 198
365 641 116 190 190 210
364 642 117 158 164 197
365 642 116 187 188 209
365 642 117 176 181 206
365 643 117 171 176 202
364 642 118 159 163 197
364 643 118 156 162 193
364 643 119 172 174 200
365 643 118 184 183 205
366 642 116 187 190 209
366 643 117 175 179 198
367 642 116 180 184 210
367 643 116 181 186 208
367 643 117 175 179 198
366 643 118 187 186 204
364 644 119 192 190 208
365 644 119 197 192 207
367 644 117 170 175 195
366 644 118 195 192 209
366 644 119 198 193 208
366 645 119 198 193 207
367 644 118 188 189 205
367 645 118 196 195 209
367 645 119 196 193 206
360 640 120 147 158 201
360 641 120 123 139 189
360 641 121 103 124 191
360 642 120 132 146 190
360 642 121 124 140 189
360 643 121 164 171 197
361 642 120 181 182 205
361 643 121 182 183 204
360 642 122 125 143 189
360 643 122 166 172 200
361 643 122 181 182 204
362 642 120 193 189 205
362 643 120 188 185 204
362 643 121 178 178 200
363 643 120 173 174 197
360 644 122 169 174 200
360 644 123 158 167 197
360 645 123 146 158 192
361 644 122 167 173 197
361 645 122 158 167 193
361 645 123 167 174 201
360 646 123 133 146 184
361 646 123 145 156 190
362 644 121 167 172 194
363 644 120 183 182 202
363 644 121 177 179 200
363 645 121 182 182 205
362 644 122 154 162 188
362 645 122 168 173 198
363 645 122 179 180 204
362 646 122 172 174 201
362 646 123 158 165 197
362 647 123 134 148 188
363 646 122 149 154 192
363 646 123 126 135 188
363 647 122 116 127 187
363 647 123 123 138 189
360 645 124 105 125 168
360 646 124 109 127 170
360 647 124 108 125 165
361 646 124 113 131 173
361 647 124 110 127 173
362 647 124 129 144 187
364 644 120 191 188 205
364 645 121 184 181 202
365 644 120 196 192 205
365 645 120 194 190 205
365 645 121 182 181 202
364 646 121 145 150 190
365 646 121 166 169 198
365 647 121 131 143 189
364 646 122 125 131 185
364 647 122 100 114 189
365 647 122 117 132 189
366 645 120 196 192 205
366 646 120 194 192 205
366 646 121 190 188 206
366 647 121 180 181 203
367 646 120 190 188 204
367 647 120 179 179 204
367 647 121 174 176 203
366 647 122 160 166 199
362 648 123 124 141 183
363 648 123 112 131 185
363 649 123 106 126 173
360 648 124 111 128 162
360 648 125 109 125 155
360 649 125 92 107 134
361 648 124 104 123 166
361 649 124 110 127 160
361 649 125 115 129 158
360 650 125 60 79 109
360 651 125 34 55 92
361 650 125 111 124 149
361 651 125 105 119 141
362 648 124 114 133 176
362 649 124 114 131 168
363 649 124 115 132 176
362 650 124 120 134 166
362 650 125 110 125 154
362 651 125 109 123 149
363 650 124 113 130 171
363 651 124 102 121 154
360 652 125 27 44 77
360 653 125 54 68 87
361 652 125 97 109 129
361 653 125 52 71 94
360 654 125 88 97 113
360 655 125 115 121 137
361 654 125 28 46 75
361 655 125 43 59 87
362 652 125 120 129 149
362 653 125 117 124 140
363 652 124 112 126 153
363 652 125 111 123 146
363 653 124 113 123 142
363 653 125 116 126 145
362 654 125 87 99 119
362 655 125 45 65 97
363 654 124 107 119 140
363 654 125 116 125 142
363 655 124 98 110 133
363 655 125 97 109 131
364 648 122 91 112 190
364 648 123 92 115 188
364 649 123 95 119 185
365 648 122 119 135 193
365 649 123 112 130 191
364 650 123 95 119 179
365 650 123 102 126 181
367 648 121 140 151 195
367 649 121 119 136 191
366 648 122 163 169 204
366 649 122 126 141 191
366 649 123 109 129 186
367 648 122 142 154 195
367 649 122 115 135 188
366 650 123 110 131 186
366 651 123 111 129 186
367 650 122 127 144 192
367 650 123 118 135 192
367 651 123 116 132 185
364 650 124 100 123 174
364 651 124 111 130 169
365 650 124 110 132 182
365 651 124 113 132 183
366 651 124 107 126 182
367 652 123 116 130 186
364 652 124 108 126 162
364 653 124 104 120 153
365 652 124 102 122 168
365 653 124 107 124 162
364 654 124 99 114 143
364 655 124 101 114 139
365 654 124 112 127 156
365 655 124 117 131 153
366 652 124 108 123 177
366 653 124 120 132 175
367 652 124 115 128 185
367 653 124 116 128 181
366 654 124 133 143 173
366 655 124 142 150 170
367 654 124 130 140 173
367 655 124 151 155 171
