ply
format ascii 1.0
comment Version 2, Copyright 2017, 8i Labs, Inc.
comment frame_to_world_scale 0.179523
comment frame_to_world_translation -45.2095 7.18301 -54.3561
comment width 1023
element vertex 379
property float x
property float y
property float z
property uchar red
property uchar green
property uchar blue
end_header
416 693 167 168 189 216
417 692 167 174 194 220
417 693 167 172 192 217
416 694 167 162 184 211
416 695 166 131 163 198
416 695 167 145 173 204
417 694 166 163 188 217
417 694 167 164 187 214
417 695 166 147 175 206
418 692 167 168 189 217
418 693 167 171 191 216
419 692 167 158 184 215
419 693 166 169 188 213
419 693 167 161 182 209
419 695 165 183 203 229
418 694 166 171 193 220
418 694 167 170 192 220
418 695 166 171 193 220
419 694 166 186 201 223
419 695 166 185 202 227
420 692 167 156 186 219
420 693 166 173 193 220
420 693 167 157 183 215
421 692 167 158 187 221
421 693 166 162 192 226
420 695 165 181 201 228
421 694 165 164 192 224
421 695 165 170 196 226
420 694 166 189 204 226
421 694 166 170 195 225
422 692 167 157 186 220
422 693 166 158 191 226
423 692 167 145 175 210
423 693 166 146 179 215
422 694 165 157 189 224
422 695 164 151 185 219
422 695 165 156 188 223
423 694 165 147 182 218
423 695 164 134 174 212
423 695 165 143 180 217
422 694 166 158 190 225
416 689 169 157 188 221
417 689 169 155 186 219
416 688 170 138 178 216
416 688 171 124 170 211
416 689 170 153 186 220
417 688 170 138 174 213
417 688 171 128 167 209
417 689 170 153 185 219
416 690 169 158 188 219
416 691 168 157 186 218
416 691 169 152 183 216
417 690 169 163 190 222
417 691 168 164 190 220
418 689 169 143 175 213
419 689 169 129 161 205
418 688 170 134 167 207
418 688 171 122 156 200
419 688 170 116 148 195
419 688 171 114 143 191
419 689 170 113 145 195
418 690 168 157 185 216
418 690 169 158 186 218
418 691 168 162 187 217
419 690 168 145 177 212
419 690 169 137 171 209
419 691 168 147 178 211
416 692 168 155 184 216
416 693 168 162 187 216
417 692 168 170 192 220
418 692 168 165 189 218
419 692 168 149 180 214
420 689 169 127 155 203
421 689 169 120 153 197
420 688 170 107 131 188
420 688 171 105 129 185
420 689 170 111 137 191
421 688 171 102 124 182
421 689 170 107 133 185
420 690 169 142 175 214
420 691 168 150 183 218
421 690 168 142 175 214
421 690 169 137 171 211
421 691 168 156 186 221
422 688 171 101 122 181
422 689 170 104 133 183
422 689 171 93 118 177
423 688 171 105 126 186
423 689 170 116 141 187
423 689 171 103 126 182
422 690 169 141 170 207
422 691 168 161 186 219
423 690 169 138 163 198
423 691 168 142 170 205
423 691 169 142 168 202
423 690 170 126 152 192
421 688 172 95 119 178
422 688 172 103 126 184
423 688 172 127 146 199
423 688 173 167 186 226
420 692 168 154 185 219
418 699 163 158 186 217
419 698 163 163 191 222
419 699 163 164 191 222
416 697 165 143 171 202
417 697 165 146 174 206
416 696 166 133 166 200
416 697 166 139 169 201
417 696 166 152 179 211
416 698 165 145 173 203
416 699 164 165 188 218
416 699 165 144 172 204
417 698 164 167 193 222
417 698 165 159 185 215
417 699 164 166 193 222
418 696 165 167 189 217
418 697 164 164 192 223
418 697 165 151 179 211
419 696 165 169 194 224
419 697 164 163 194 227
419 697 165 161 190 222
418 696 166 172 193 220
418 698 164 164 190 220
418 699 164 163 190 221
419 698 164 163 192 224
416 701 163 149 177 207
417 700 163 150 179 212
417 701 162 151 177 205
417 701 163 149 177 208
417 703 161 141 165 193
416 702 162 153 177 205
416 702 163 148 176 206
416 703 162 149 170 196
416 703 163 150 172 199
417 702 162 152 176 204
417 703 162 148 170 197
418 700 163 157 183 213
418 701 162 153 178 206
418 701 163 155 181 210
419 700 162 160 184 212
419 700 163 165 189 217
419 701 162 147 174 204
418 702 161 146 173 203
418 703 161 140 169 199
419 702 161 146 177 209
419 703 161 147 178 210
418 702 162 147 173 203
419 702 162 145 175 206
416 700 164 163 184 213
416 701 164 153 177 207
417 700 164 165 188 217
421 697 163 136 175 212
420 698 163 155 186 219
420 699 162 160 185 215
420 699 163 162 189 219
421 698 163 145 181 218
421 699 162 157 185 216
422 697 163 139 177 214
423 696 163 141 177 213
423 697 163 155 187 220
423 699 161 163 188 217
422 698 162 160 190 223
422 698 163 160 194 228
422 699 162 160 186 216
423 698 162 170 195 226
423 699 162 165 190 219
420 696 164 165 193 225
420 696 165 172 198 228
420 697 164 156 188 222
421 696 164 159 189 222
421 696 165 168 195 226
421 697 164 149 182 217
422 696 164 145 179 214
422 697 164 135 172 208
423 696 164 130 170 207
420 701 161 146 180 214
421 700 161 159 185 215
421 701 161 158 187 219
420 700 162 154 180 210
420 701 162 132 167 200
421 700 162 161 184 212
420 702 161 154 185 218
420 703 160 159 187 218
420 703 161 155 185 217
421 702 160 165 191 222
421 702 161 160 189 221
421 703 160 160 187 216
422 700 161 160 186 216
422 701 160 172 195 223
422 701 161 164 191 221
423 700 160 166 190 218
423 700 161 162 187 217
423 701 160 175 196 223
422 700 162 160 185 214
422 702 160 176 199 227
422 703 160 171 194 220
423 702 160 180 200 226
424 692 167 126 159 196
424 693 166 129 166 203
425 692 167 120 155 194
425 693 166 115 153 194
424 694 165 128 170 209
424 695 164 130 173 212
425 694 165 117 157 199
425 695 164 140 174 211
426 692 167 114 149 195
426 693 166 107 143 190
426 693 167 113 148 196
427 692 167 118 151 202
427 693 166 120 153 202
427 693 167 135 166 214
426 694 165 109 138 188
426 695 164 134 156 197
427 694 165 111 136 191
427 695 164 127 144 192
427 695 165 116 137 191
427 694 166 122 150 201
428 693 167 158 182 230
429 693 167 160 181 231
428 695 165 134 156 207
429 695 165 155 175 225
428 694 166 147 171 220
429 694 166 159 179 229
429 694 167 153 173 224
429 695 166 163 182 231
430 693 167 153 174 221
431 693 167 172 191 225
430 695 165 155 173 226
430 694 166 167 183 232
430 694 167 158 177 224
430 695 166 161 178 230
431 694 166 168 188 226
431 694 167 177 194 228
431 695 166 154 174 220
424 689 170 128 154 194
424 689 171 132 153 204
425 689 171 149 174 223
424 690 169 125 153 190
424 691 168 125 156 192
424 691 169 123 152 188
425 690 169 134 163 207
425 691 168 117 151 191
425 691 169 120 152 194
424 690 170 131 158 197
425 690 170 151 177 220
426 689 171 156 181 233
427 689 171 151 181 233
426 690 169 150 178 224
426 691 168 123 155 200
426 691 169 145 174 221
427 691 169 156 184 233
426 690 170 160 188 235
426 690 171 162 188 237
427 690 170 166 194 238
427 690 171 159 188 236
424 688 172 147 165 219
424 688 173 174 192 237
424 689 172 144 164 220
425 688 172 143 163 226
425 688 173 142 162 226
425 689 172 147 168 226
426 688 172 140 164 226
426 688 173 124 149 218
426 689 172 146 171 229
427 688 172 136 161 223
427 688 173 131 157 219
427 689 172 140 168 226
424 692 168 122 154 192
425 692 168 118 151 192
426 692 168 120 153 201
427 692 168 132 164 216
428 689 171 150 176 218
429 688 171 183 202 227
429 689 171 188 205 228
428 691 169 175 195 237
429 691 169 178 198 234
428 690 170 183 201 235
428 690 171 171 193 229
428 691 170 183 200 236
429 690 170 176 194 222
429 691 170 170 191 224
431 688 169 134 155 196
431 689 169 155 173 206
430 688 170 163 180 206
430 688 171 174 192 217
430 689 170 169 186 211
430 689 171 175 192 216
431 688 170 155 172 203
431 689 170 171 185 210
430 691 169 175 194 223
431 690 169 168 183 214
431 691 168 163 182 214
431 691 169 165 183 214
430 690 170 172 190 217
428 688 172 121 152 207
428 689 172 119 154 212
429 688 172 161 184 218
428 692 168 166 189 237
428 692 169 174 195 240
428 693 168 163 183 233
429 692 168 179 198 237
429 692 169 186 205 241
429 693 168 162 183 232
430 692 168 166 187 226
430 692 169 168 189 223
430 693 168 161 185 226
431 692 168 164 184 217
424 696 163 163 193 225
424 697 162 174 196 224
424 697 163 172 197 227
425 696 163 172 195 226
425 697 162 178 196 223
425 697 163 177 196 225
424 699 161 174 194 220
425 699 161 176 194 219
424 698 162 175 196 223
425 698 162 184 201 226
426 696 163 159 178 212
426 697 162 171 189 220
426 697 163 163 182 216
427 696 163 140 158 201
427 697 162 167 183 219
427 697 163 149 166 207
426 699 161 161 182 211
427 699 161 138 168 203
426 698 162 184 201 228
427 698 162 166 184 219
424 696 164 153 186 221
425 696 164 164 190 223
426 696 164 151 171 206
427 696 164 133 150 195
424 700 160 164 185 212
424 700 161 168 188 214
424 701 160 171 193 221
425 700 160 144 172 203
425 700 161 151 175 204
425 701 160 163 189 222
426 700 160 155 179 208
426 700 161 148 174 204
427 700 160 166 186 212
427 700 161 159 183 211
427 701 160 178 192 215
428 696 163 126 148 193
428 697 163 144 162 204
429 697 163 137 158 206
428 699 161 117 152 195
429 699 161 130 162 204
428 698 162 130 153 198
429 698 162 120 145 194
429 698 163 131 152 202
429 699 162 119 149 198
430 697 163 158 176 225
430 698 162 139 161 209
430 698 163 154 170 220
430 699 162 149 170 215
431 698 163 172 184 235
431 699 162 160 175 226
431 699 163 159 173 229
428 696 164 130 152 200
429 696 164 140 164 213
429 696 165 142 165 214
430 696 164 163 183 231
430 696 165 157 176 229
430 697 164 158 178 228
431 696 164 143 166 221
431 696 165 144 165 220
431 697 164 160 178 230
428 700 160 164 184 209
428 700 161 150 178 208
428 701 160 167 187 213
429 700 160 146 176 208
429 700 161 141 173 208
429 701 160 149 179 212
430 700 161 144 175 214
430 701 160 141 177 214
431 700 161 150 175 221
431 701 160 157 187 227
431 701 161 154 182 225
431 700 162 145 170 222
