ply
format ascii 1.0
comment Version 2, Copyright 2017, 8i Labs, Inc.
comment frame_to_world_scale 0.179523
comment frame_to_world_translation -45.2095 7.18301 -54.3561
comment width 1023
element vertex 386
property float x
property float y
property float z
property uchar red
property uchar green
property uchar blue
end_header
432 658 144 69 69 73
432 659 144 74 71 69
432 659 145 79 72 67
433 659 144 74 70 68
433 659 145 80 72 66
432 659 146 83 73 65
432 659 147 85 74 64
433 659 146 84 74 65
433 659 147 87 76 66
434 659 144 73 69 69
432 659 148 87 76 66
432 659 149 92 79 67
433 660 145 81 72 66
433 660 146 85 75 67
433 660 147 87 76 66
434 660 144 76 71 68
434 660 145 82 73 67
435 660 144 73 69 67
435 660 145 78 72 68
435 661 144 77 72 69
435 661 145 83 75 69
434 660 146 85 76 68
434 660 147 88 77 68
434 661 146 91 80 71
434 661 147 92 80 70
435 661 146 88 77 68
435 661 147 92 80 70
432 660 149 94 80 68
433 660 148 90 78 68
433 660 149 94 81 69
432 660 150 97 83 69
432 660 151 100 85 69
433 660 150 97 83 70
433 661 150 98 83 70
433 661 151 100 85 70
434 660 148 90 78 68
434 660 149 94 82 70
434 661 148 93 80 69
434 661 149 97 83 70
435 661 148 95 81 69
435 661 149 98 84 70
434 661 150 99 85 70
434 661 151 101 85 70
435 661 150 100 85 70
435 662 148 97 82 68
435 662 149 99 83 68
435 662 150 101 85 69
435 662 151 102 85 68
436 661 144 76 71 70
436 661 145 83 75 69
437 661 144 74 70 69
437 661 145 81 74 69
436 661 146 89 78 68
437 662 144 77 72 69
437 662 145 85 77 70
436 662 146 91 80 69
436 662 147 93 80 68
437 662 146 91 80 70
437 662 147 94 81 68
438 662 144 76 71 68
438 662 145 86 77 69
439 662 144 77 72 68
439 662 145 83 75 68
439 663 145 89 78 68
438 662 146 94 82 70
438 663 146 94 81 69
438 663 147 96 82 68
439 663 146 95 81 67
439 663 147 98 83 67
436 662 148 96 82 68
436 662 149 99 84 68
436 663 149 100 83 67
437 662 148 97 83 68
437 663 148 98 83 67
437 663 149 101 84 67
436 662 150 101 84 67
436 662 151 102 85 67
436 663 150 101 85 67
436 663 151 103 85 67
437 663 150 102 85 67
437 663 151 103 85 67
438 663 148 99 83 67
438 663 149 101 84 66
439 663 148 99 83 66
438 663 150 102 85 66
432 660 152 102 86 70
432 660 153 104 87 70
432 661 152 103 87 71
432 661 153 104 87 70
433 661 152 102 86 70
433 661 153 103 87 69
432 661 154 105 87 69
432 661 155 106 88 68
433 661 154 105 87 69
433 662 153 105 87 69
432 662 155 108 89 69
433 662 154 105 87 68
433 662 155 107 88 68
434 661 152 102 85 69
434 662 152 103 86 69
434 662 153 104 86 68
435 662 152 103 86 68
435 662 153 105 87 68
435 663 153 106 88 68
434 662 154 105 87 67
434 662 155 107 88 68
434 663 154 107 88 68
434 663 155 109 89 69
435 663 154 107 89 69
435 663 155 110 91 70
432 661 156 109 90 70
432 662 156 110 91 70
432 662 157 111 91 71
433 662 156 110 90 70
433 662 157 112 92 71
433 663 157 112 92 71
432 662 158 114 93 70
432 662 159 116 94 71
432 663 158 115 93 70
432 663 159 117 94 70
433 663 158 115 94 72
433 663 159 117 95 70
434 663 156 111 91 70
434 663 157 113 93 71
435 663 156 111 91 70
434 663 158 116 94 72
436 662 152 104 86 67
436 663 152 105 86 68
436 663 153 107 88 69
437 663 152 105 87 67
436 663 154 109 90 69
439 664 147 99 83 66
438 664 149 101 84 65
439 664 148 99 82 65
439 664 149 101 84 65
438 664 150 102 84 65
438 664 151 104 86 66
439 664 150 104 85 66
439 664 151 105 86 66
439 665 151 106 86 66
433 664 159 118 95 71
434 664 157 115 94 72
435 664 156 112 92 71
435 664 157 115 94 72
434 664 158 116 94 71
434 664 159 117 95 70
435 664 158 116 94 71
435 665 158 117 95 71
435 665 159 117 94 70
436 664 153 109 89 69
437 664 152 104 86 66
437 664 153 107 88 67
436 664 154 110 90 69
436 664 155 111 91 69
437 664 154 110 90 68
437 664 155 111 90 68
437 665 154 110 90 67
437 665 155 111 90 67
438 664 152 105 86 65
438 664 153 106 87 66
438 665 153 108 88 65
439 664 152 105 86 66
439 665 152 107 87 65
439 665 153 109 88 65
438 665 154 110 89 66
438 665 155 112 91 67
439 665 154 111 90 67
438 666 155 114 92 68
439 666 154 112 90 66
439 666 155 115 93 68
436 664 156 113 92 70
436 664 157 115 94 72
436 665 156 113 92 68
436 665 157 115 93 69
437 665 156 113 91 67
437 665 157 114 92 67
436 665 158 117 94 69
436 665 159 118 95 69
437 666 157 116 93 67
436 666 158 118 94 68
436 666 159 119 95 69
437 666 158 118 94 68
437 666 159 119 96 69
437 667 159 120 96 69
438 665 156 114 92 68
438 666 156 114 92 67
438 666 157 116 92 66
438 667 157 117 93 66
439 666 156 115 92 67
439 667 156 116 93 66
439 667 157 117 93 67
438 666 158 117 94 67
438 667 158 118 95 68
438 667 159 120 97 71
439 667 158 118 95 70
439 667 159 119 97 72
439 668 158 118 95 70
439 668 159 118 95 70
440 662 144 76 70 66
440 663 144 83 74 68
440 663 145 91 79 68
441 663 144 84 74 66
440 663 146 96 81 67
440 664 145 94 80 66
441 664 144 84 75 67
441 664 145 93 79 66
440 664 146 97 81 66
440 664 147 98 82 65
441 664 146 96 81 65
441 664 147 98 81 64
441 665 146 98 82 65
441 665 147 99 82 64
442 664 144 85 76 68
442 664 145 93 80 68
442 665 145 96 81 67
443 664 144 90 79 70
443 665 144 94 81 70
443 665 145 97 82 67
442 665 146 98 81 64
442 665 147 100 82 62
443 665 146 100 82 64
443 666 146 101 82 63
443 666 147 102 83 61
440 664 148 100 82 64
440 664 149 102 83 64
440 665 149 103 85 64
441 665 148 102 84 64
441 665 149 105 85 63
440 664 150 104 85 66
440 665 150 106 86 64
440 665 151 108 87 64
441 665 150 108 87 64
441 665 151 109 88 64
441 666 150 108 87 64
441 666 151 110 89 65
442 665 148 102 83 61
442 665 149 105 84 60
442 666 148 103 83 61
442 666 149 107 85 61
443 666 148 104 84 61
443 666 149 106 85 61
443 667 149 107 86 63
442 666 150 109 88 64
442 666 151 111 90 66
443 666 150 109 87 63
443 667 150 110 88 64
443 667 151 112 89 65
444 665 144 91 81 72
444 665 145 98 83 69
445 665 144 87 79 73
444 666 145 100 84 68
445 666 144 92 81 73
445 666 145 99 84 70
445 667 145 104 87 70
444 666 146 102 84 64
444 666 147 104 84 61
444 667 147 107 86 63
445 667 146 106 87 66
445 667 147 108 88 66
446 666 144 91 80 71
446 666 145 98 84 70
446 667 145 102 86 70
447 666 144 81 73 69
447 667 144 88 77 69
447 667 145 98 83 69
446 667 146 106 88 68
444 666 148 106 85 62
444 667 148 107 86 63
444 667 149 108 86 62
445 667 148 108 87 63
444 667 150 110 88 62
444 667 151 112 89 63
447 668 145 102 84 67
446 668 146 107 88 66
446 668 147 109 88 65
447 668 146 106 87 67
447 668 147 108 87 66
447 669 146 106 85 65
447 669 147 108 86 66
444 668 149 110 87 60
445 668 148 109 88 64
445 668 149 110 88 63
444 668 150 111 88 61
444 668 151 113 89 62
445 668 150 111 88 61
445 668 151 113 88 61
445 669 150 112 88 62
445 669 151 113 88 62
445 670 151 114 88 62
446 668 148 109 88 65
446 669 148 112 90 67
446 669 149 113 90 66
447 669 148 111 88 67
446 669 150 113 88 63
446 670 149 114 89 66
447 670 148 112 89 67
447 670 149 114 89 67
447 671 148 111 87 67
447 671 149 113 88 66
446 670 150 114 89 64
446 670 151 114 89 63
446 671 151 114 88 63
447 671 150 114 88 64
447 671 151 113 87 63
440 665 152 109 88 64
440 665 153 110 88 64
440 666 152 110 88 63
440 666 153 112 90 65
441 666 152 112 90 66
441 666 153 114 92 67
441 667 153 116 94 70
440 666 154 114 92 67
440 666 155 116 94 69
440 667 154 117 94 69
440 667 155 118 95 70
441 667 154 118 95 71
441 667 155 120 96 71
442 666 152 113 91 67
442 667 152 114 92 68
442 667 153 117 94 71
443 667 152 115 92 68
440 667 156 119 95 69
440 667 157 119 95 69
441 668 155 119 96 70
442 668 153 118 95 70
443 668 152 116 92 67
443 668 153 118 94 68
443 669 153 116 92 67
442 668 154 119 96 71
442 668 155 119 95 70
442 669 155 119 94 69
443 668 154 119 95 69
443 669 154 119 95 68
443 669 155 118 94 68
440 668 156 120 96 70
440 668 157 119 96 70
441 668 156 118 95 70
441 668 157 118 95 71
441 669 157 119 95 71
440 668 158 118 94 70
440 668 159 117 94 70
440 669 159 118 94 69
441 669 158 118 95 69
441 669 159 118 94 67
442 668 156 118 94 69
442 669 156 118 93 68
442 669 157 118 94 69
443 669 156 118 93 68
443 669 157 117 93 68
442 669 158 118 94 68
443 670 156 117 92 65
443 670 157 117 93 66
442 670 158 118 94 67
442 670 159 118 94 67
443 670 158 117 93 67
443 670 159 117 94 67
443 671 158 116 92 66
443 671 159 116 92 66
444 668 152 114 91 65
444 668 153 116 92 66
444 669 152 114 89 63
444 669 153 116 91 66
445 669 152 114 89 63
444 669 154 118 93 67
444 669 155 117 93 67
444 670 153 115 90 66
445 670 152 114 89 62
445 670 153 114 89 63
445 671 153 114 88 61
444 670 154 116 91 66
444 670 155 116 91 64
445 670 154 115 89 64
445 671 154 115 89 62
445 671 155 115 90 63
446 670 152 115 89 62
446 671 152 114 87 60
446 671 153 114 87 59
446 671 154 115 89 60
444 670 156 116 91 65
444 670 157 116 92 64
444 671 156 115 90 64
444 671 157 116 92 66
445 671 156 115 90 64
445 671 157 115 91 66
444 671 158 115 91 66
444 671 159 114 90 66
