ply
format ascii 1.0
comment Version 2, Copyright 2017, 8i Labs, Inc.
comment frame_to_world_scale 0.179523
comment frame_to_world_translation -45.2095 7.18301 -54.3561
comment width 1023
element vertex 297
property float x
property float y
property float z
property uchar red
property uchar green
property uchar blue
end_header
107 673 83 71 111 149
107 674 82 110 135 160
107 674 83 95 127 159
107 675 82 133 147 166
107 675 83 114 138 164
107 673 84 53 97 148
107 673 85 59 98 148
107 673 86 55 93 144
107 674 84 65 106 152
107 674 85 62 100 152
107 675 84 80 116 155
107 675 85 67 105 150
107 674 86 57 93 147
107 674 87 55 91 144
107 675 86 54 93 149
107 675 87 55 91 147
107 676 82 135 147 163
107 676 83 108 130 155
107 677 83 97 122 149
107 678 83 88 116 145
107 679 83 92 120 149
107 676 84 80 114 149
107 676 85 70 107 148
107 677 84 79 110 141
107 677 85 84 115 145
107 676 86 68 105 148
107 676 87 47 93 142
107 677 86 87 118 149
107 677 87 75 110 146
107 678 84 87 115 143
107 678 85 97 123 150
107 679 84 94 120 146
107 679 85 105 129 154
107 678 86 104 129 154
107 678 87 106 131 158
107 679 86 109 132 157
107 679 87 114 137 163
108 672 80 81 114 148
108 672 81 82 116 149
108 673 80 111 133 160
108 673 81 104 131 159
108 672 82 70 105 144
108 672 83 67 100 146
108 673 82 88 122 152
108 673 83 69 107 149
108 674 80 116 133 153
108 674 81 114 132 154
108 675 80 120 135 155
108 675 81 121 135 153
108 674 82 119 138 159
108 675 82 130 143 160
108 672 84 56 94 144
108 672 85 59 97 143
108 673 84 56 98 147
108 673 85 62 99 147
108 672 86 58 97 138
108 672 87 62 94 137
108 673 86 56 95 142
108 673 87 62 93 140
109 672 86 66 100 136
109 672 87 70 98 135
108 674 87 55 89 140
110 672 87 64 93 128
108 676 80 128 143 162
108 676 81 119 136 157
108 677 80 139 152 172
108 677 81 130 145 165
108 676 82 134 145 162
108 677 82 131 144 163
108 677 83 119 135 156
108 678 80 132 147 168
108 678 81 133 146 165
108 679 80 129 144 165
108 679 81 140 150 167
108 678 82 129 144 165
108 678 83 101 125 152
108 679 82 133 148 168
108 679 83 104 128 154
107 676 88 38 89 138
107 677 88 54 98 140
107 678 88 77 113 148
107 678 89 46 94 139
107 679 88 84 118 152
107 679 89 54 98 141
108 673 88 73 99 138
109 672 88 77 101 135
109 673 88 75 100 136
109 673 89 78 102 134
108 674 88 61 94 137
108 674 89 69 97 137
108 675 88 53 90 139
108 675 89 48 81 129
109 674 89 79 103 136
109 675 89 61 88 130
109 674 90 85 107 137
109 675 90 71 95 133
110 672 88 73 99 131
110 673 89 77 100 131
111 672 88 61 93 128
111 672 89 68 97 128
111 673 89 73 98 128
110 673 90 86 106 133
111 673 90 77 101 126
110 674 90 87 108 135
110 675 90 81 104 134
111 674 90 80 103 127
111 674 91 84 105 129
111 675 91 89 111 135
108 676 88 41 86 138
108 676 89 36 80 131
108 677 89 32 81 133
108 677 90 39 81 129
109 676 90 41 79 125
109 677 90 40 81 127
108 678 89 34 85 135
108 679 89 45 90 137
108 678 90 37 82 131
108 679 90 59 97 138
109 678 90 43 83 128
109 678 91 44 84 129
109 679 90 47 87 131
109 679 91 46 87 130
110 676 90 65 91 128
110 677 90 58 88 129
110 677 91 59 90 131
111 676 91 73 101 131
111 677 91 60 92 130
110 678 91 38 79 127
110 679 91 39 78 128
111 678 91 43 80 128
111 677 92 59 94 127
110 679 92 44 80 130
111 678 92 58 90 134
111 679 92 53 85 134
111 679 93 64 94 135
107 680 83 115 135 158
107 681 83 116 133 154
107 683 81 123 140 161
107 682 82 124 138 157
107 682 83 108 127 149
107 683 82 125 140 161
107 683 83 113 132 155
107 680 84 109 129 152
107 680 85 113 133 155
107 681 84 120 137 158
107 681 85 122 138 159
107 680 86 112 134 157
107 680 87 111 135 160
107 681 86 113 132 154
107 681 87 108 130 157
107 682 84 110 130 154
107 682 85 119 137 158
107 683 84 111 131 155
107 683 85 116 135 157
106 683 86 117 135 157
106 683 87 114 134 159
107 682 86 115 133 154
107 682 87 109 129 157
107 683 86 116 134 156
107 683 87 92 117 154
107 684 81 119 136 157
107 685 80 120 135 156
107 685 81 123 138 158
107 684 82 118 137 159
107 684 83 113 134 159
107 685 82 124 140 161
107 685 83 113 133 160
107 686 80 114 129 150
107 686 81 120 135 154
107 687 80 114 129 148
107 687 81 119 132 150
106 687 83 107 123 151
107 686 82 123 138 158
107 686 83 115 131 158
107 687 82 123 136 155
107 687 83 113 128 153
106 684 84 119 140 163
106 684 85 117 139 162
106 685 84 119 140 163
106 685 85 119 140 163
107 684 84 116 136 161
107 684 85 119 139 163
107 685 84 112 133 162
106 684 86 120 137 158
106 684 87 115 136 160
106 685 86 122 138 159
106 685 87 120 138 160
106 686 84 110 130 160
106 686 85 113 134 158
106 687 84 105 123 155
106 687 85 106 125 154
106 686 86 120 137 160
106 686 87 117 137 161
106 687 86 110 130 158
106 687 87 107 130 158
108 680 80 119 138 161
108 680 81 138 147 163
108 681 80 112 136 161
108 681 81 129 141 159
108 680 82 137 149 166
108 680 83 120 138 159
108 681 82 125 137 154
108 681 83 124 139 158
108 682 80 103 130 158
108 682 81 127 142 163
108 683 80 104 127 158
108 683 81 120 139 162
108 682 82 126 139 157
108 684 80 116 131 157
108 685 80 118 133 155
108 686 80 111 126 148
108 687 80 111 126 146
107 680 88 75 113 149
107 680 89 53 97 142
107 681 88 70 107 147
107 681 89 54 94 143
107 680 90 75 105 143
107 681 90 76 104 144
106 683 88 71 105 147
107 682 88 65 100 145
107 682 89 63 95 144
107 683 88 61 97 144
107 683 89 64 92 141
107 682 90 89 111 146
107 683 90 92 113 147
106 684 88 66 104 149
106 684 89 59 95 146
106 685 88 76 114 152
106 685 89 65 100 148
107 684 89 67 96 143
106 685 90 75 106 148
107 684 90 94 117 149
107 685 90 92 120 150
106 686 88 82 117 154
106 686 89 70 106 149
106 687 88 79 113 152
106 687 89 73 106 149
106 686 90 83 113 148
106 687 90 86 116 149
107 686 90 92 121 150
107 686 91 100 128 154
107 687 90 96 124 151
107 687 91 92 121 151
108 680 89 55 96 140
108 680 90 77 107 142
108 681 90 89 116 143
108 681 91 94 120 143
109 680 91 77 107 137
109 681 91 82 113 140
108 682 90 93 118 145
108 682 91 100 124 146
108 683 90 100 123 148
108 683 91 98 124 147
109 682 91 79 111 140
109 683 91 71 105 139
110 680 91 44 80 127
109 681 92 71 102 135
109 682 92 62 97 136
109 683 92 59 93 136
110 680 92 54 87 131
110 681 92 60 94 134
111 680 92 49 83 132
111 680 93 59 90 133
111 681 93 68 99 136
110 682 92 56 93 135
110 683 92 63 96 136
111 682 92 62 97 136
111 682 93 66 101 136
111 683 93 71 106 137
108 684 90 102 126 152
108 684 91 93 122 149
108 685 91 89 119 150
109 684 91 70 102 139
109 685 91 56 91 135
108 686 91 71 107 145
108 687 91 56 98 142
109 684 92 61 94 135
109 685 92 55 90 134
108 686 92 46 88 137
108 687 92 50 90 138
109 686 92 61 95 135
109 687 92 73 102 138
109 687 93 84 110 140
110 684 92 68 100 136
110 685 92 76 106 139
110 685 93 89 116 144
111 684 93 78 111 141
111 685 93 85 116 144
111 685 94 81 116 146
110 686 93 89 116 144
110 687 93 88 116 144
111 686 93 90 119 145
110 687 94 88 117 145
111 686 94 85 117 146
111 686 95 73 112 144
111 687 94 88 118 145
111 687 95 74 111 143
