ply
format ascii 1.0
comment Version 2, Copyright 2017, 8i Labs, Inc.
comment frame_to_world_scale 0.179523
comment frame_to_world_translation -45.2095 7.18301 -54.3561
comment width 1023
element vertex 98
property float x
property float y
property float z
property uchar red
property uchar green
property uchar blue
end_header
127 481 111 93 80 68
126 483 109 99 81 63
127 482 109 101 84 66
127 483 108 109 88 66
127 483 109 102 84 65
126 482 111 95 80 66
126 483 110 97 81 64
126 483 111 96 81 65
127 482 110 96 82 68
127 482 111 93 80 67
127 483 110 98 82 65
127 485 107 126 102 80
127 486 107 123 99 76
127 487 107 120 90 62
125 484 110 98 80 59
125 484 111 99 81 62
125 485 110 103 83 60
125 485 111 102 82 61
125 486 109 109 88 63
125 487 108 111 81 58
125 487 109 112 85 60
124 486 111 109 87 64
124 487 110 116 89 65
124 487 111 117 90 67
125 486 110 108 86 63
125 486 111 107 86 64
125 487 110 115 88 63
126 484 109 103 83 61
126 485 108 117 95 74
126 485 109 109 88 66
127 484 108 114 90 67
127 484 109 105 85 62
127 485 108 118 95 74
126 484 110 98 80 60
126 484 111 96 80 62
126 486 108 117 94 71
126 486 109 112 91 70
126 487 108 112 85 59
127 486 108 121 98 78
127 488 107 128 93 69
127 489 107 142 104 85
126 490 107 145 105 87
126 491 107 145 102 79
127 490 107 147 107 88
127 491 107 142 101 79
125 488 108 118 85 68
125 488 109 116 84 65
125 489 108 126 90 76
125 489 109 127 90 76
124 488 110 123 91 68
124 488 111 126 93 71
124 489 110 129 94 75
124 489 111 133 98 77
125 488 110 120 89 67
124 490 109 140 100 88
124 491 109 148 107 93
125 490 108 139 100 84
125 490 109 137 98 84
125 491 108 148 108 90
125 491 109 150 109 94
124 490 110 139 101 85
124 490 111 139 102 85
124 491 110 145 104 89
124 491 111 142 102 87
126 488 108 118 83 61
126 489 108 134 96 80
126 490 108 143 102 85
126 491 108 148 104 82
126 492 107 147 108 87
126 493 107 145 110 91
127 492 107 143 106 85
127 493 107 143 110 91
126 494 107 145 113 94
126 495 107 138 107 84
127 494 107 140 110 90
127 495 107 137 105 83
124 492 109 149 108 93
124 493 109 142 99 84
125 492 108 151 111 94
125 492 109 152 111 95
125 493 108 144 106 89
125 493 109 145 103 87
124 492 110 144 102 87
124 492 111 141 101 86
124 493 110 140 99 83
124 493 111 137 99 84
124 494 109 140 102 87
124 495 109 135 103 87
125 494 108 143 109 92
125 494 109 142 105 90
125 495 108 138 108 88
124 494 110 137 99 84
124 494 111 134 99 83
124 495 110 132 101 84
124 495 111 130 98 79
126 492 108 149 109 88
126 493 108 147 110 90
126 494 108 146 112 93
