ply
format ascii 1.0
comment Version 2, Copyright 2017, 8i Labs, Inc.
comment frame_to_world_scale 0.179523
comment frame_to_world_translation -45.2095 7.18301 -54.3561
comment width 1023
element vertex 318
property float x
property float y
property float z
property uchar red
property uchar green
property uchar blue
end_header
119 738 128 145 144 149
119 739 128 147 145 149
119 740 128 148 146 150
119 741 128 135 136 143
119 741 129 144 142 148
118 743 128 136 138 148
119 742 128 123 127 139
119 742 129 130 132 141
119 743 128 134 138 147
119 743 129 128 130 140
117 747 128 154 150 152
118 744 128 153 150 154
118 745 128 154 150 153
119 744 128 144 145 151
119 744 129 136 137 144
119 745 129 146 144 149
119 744 130 133 133 141
119 745 130 144 143 148
118 746 128 152 148 151
118 746 129 150 148 152
118 747 128 155 151 155
118 747 129 149 148 153
119 746 129 145 143 148
119 747 129 139 141 149
119 746 130 146 145 149
119 746 131 144 145 151
119 747 130 134 139 149
119 747 131 120 129 145
117 748 128 154 152 155
117 749 128 142 144 151
116 750 128 115 124 143
116 751 128 84 101 134
117 750 128 119 127 144
117 750 129 110 120 139
117 751 128 94 106 136
117 751 129 104 115 139
118 748 128 156 153 157
118 748 129 138 141 151
118 749 129 119 128 143
118 749 130 103 116 140
119 748 130 117 127 145
119 748 131 97 111 140
119 749 130 94 108 139
119 749 131 84 98 138
118 750 129 107 119 138
118 750 130 92 107 136
118 750 131 86 101 136
118 751 130 95 110 137
118 751 131 90 107 135
119 750 131 84 99 137
119 751 131 90 105 136
119 748 132 82 97 138
119 749 132 77 93 138
119 750 132 87 102 138
119 750 133 102 116 144
119 751 132 98 112 139
119 751 133 101 115 143
120 736 128 146 148 156
120 736 129 143 145 154
120 737 128 152 151 157
120 737 129 144 144 151
121 736 129 140 143 152
121 737 129 143 143 151
121 736 130 132 138 151
121 736 131 117 127 143
121 737 130 146 146 154
121 737 131 146 146 153
120 738 128 146 144 150
120 738 129 137 137 144
120 739 128 142 140 146
120 739 129 136 136 144
120 738 130 131 133 142
120 739 130 122 125 137
121 738 130 143 142 149
121 738 131 155 151 153
121 739 130 130 132 141
121 739 131 141 140 146
122 736 131 108 120 138
121 737 132 157 154 157
121 738 132 160 154 155
121 739 132 154 150 153
122 736 132 103 117 136
122 736 133 120 130 145
122 737 132 144 145 152
122 737 133 146 147 155
123 736 133 125 134 149
123 737 133 139 144 155
123 736 134 120 131 148
123 736 135 104 117 141
123 737 134 134 141 154
123 737 135 105 120 143
122 738 132 156 152 154
122 738 133 151 150 155
122 739 132 154 151 154
122 739 133 149 149 154
122 738 134 140 144 153
122 739 134 135 141 152
123 738 134 136 142 154
123 738 135 111 126 146
123 739 134 128 137 151
123 739 135 104 121 142
120 740 128 151 148 153
120 740 129 144 143 150
120 741 129 150 147 152
120 740 130 129 132 141
120 741 130 143 142 149
120 741 131 137 137 145
121 740 130 122 125 137
121 740 131 128 129 138
121 741 131 132 133 142
120 742 129 145 144 149
120 742 130 146 145 150
120 742 131 143 142 148
120 743 130 137 137 144
120 743 131 140 139 145
121 742 131 140 140 147
121 740 132 143 143 150
121 741 132 133 135 144
121 741 133 124 129 140
120 743 132 142 141 147
121 742 132 143 144 152
121 742 133 133 140 152
121 743 132 145 147 154
121 743 133 125 134 149
122 740 132 151 150 156
122 740 133 143 146 155
122 741 133 127 132 144
122 740 134 123 132 147
122 740 135 98 116 138
122 741 134 108 121 140
122 741 135 97 115 139
123 740 135 95 115 139
123 741 135 88 108 138
122 742 133 127 135 149
122 742 134 107 122 144
122 742 135 89 106 140
122 743 134 96 113 139
122 743 135 89 105 139
124 736 135 105 116 141
123 737 136 84 105 138
123 738 136 83 107 138
123 739 136 79 104 136
123 740 136 77 101 137
123 741 136 69 95 134
123 741 137 55 86 134
122 743 136 93 110 141
123 742 136 74 97 137
123 742 137 68 94 137
123 743 136 99 117 144
123 743 137 105 122 148
124 736 136 113 123 144
124 736 137 118 128 147
124 737 136 87 104 138
124 737 137 85 102 139
125 736 137 105 118 141
125 737 137 79 99 136
125 736 138 96 111 138
125 737 138 72 93 137
124 738 136 79 101 139
124 738 137 78 99 141
124 739 136 75 100 138
124 739 137 70 95 138
125 738 138 66 91 138
125 739 138 59 88 136
126 736 138 90 106 141
126 737 138 70 89 140
126 737 139 68 86 140
127 736 139 76 92 138
127 737 139 64 83 138
126 738 138 59 84 137
126 738 139 58 82 135
126 739 139 71 93 137
127 738 139 76 95 138
127 739 139 106 121 147
124 740 137 62 89 135
124 741 137 62 88 135
124 740 138 60 87 136
124 741 138 77 97 142
125 740 138 74 95 139
125 741 138 100 114 148
124 742 137 68 93 138
124 743 137 102 119 148
124 742 138 83 101 142
124 743 138 103 116 150
125 742 138 103 115 147
125 742 139 108 116 148
125 743 138 106 114 150
125 743 139 104 110 147
126 740 139 96 112 144
126 741 139 117 129 153
127 740 139 122 134 154
127 741 139 120 132 152
126 742 139 114 122 149
126 743 139 100 105 143
127 742 139 111 122 146
127 743 139 103 112 144
127 742 140 111 124 149
127 743 140 111 124 150
120 744 130 132 132 140
120 744 131 134 135 142
120 745 130 140 139 146
120 745 131 143 143 150
120 746 131 142 143 152
120 747 131 119 128 143
120 744 132 141 142 149
120 745 132 138 142 151
121 744 132 138 142 151
121 744 133 109 122 142
121 745 132 118 128 144
121 745 133 98 111 139
121 744 134 91 108 136
121 745 134 93 106 139
120 746 132 112 122 141
120 746 133 86 100 137
120 747 132 90 105 136
120 747 133 85 100 138
121 746 133 91 104 139
121 747 133 90 103 140
121 746 134 99 111 143
121 746 135 110 121 145
121 747 134 101 114 144
121 747 135 107 118 144
122 744 134 90 105 137
122 744 135 97 110 140
122 745 135 104 116 142
122 746 135 112 122 144
122 747 135 103 114 141
120 748 132 81 97 138
120 748 133 86 102 140
120 749 132 81 96 138
120 749 133 89 106 141
120 748 134 97 112 143
120 749 134 98 114 145
121 748 134 102 116 145
121 748 135 95 109 141
121 749 135 88 104 141
120 750 133 99 113 145
120 750 134 95 111 145
120 750 135 79 98 139
120 751 134 87 106 142
120 751 135 73 92 140
121 750 135 78 96 140
121 751 135 79 95 143
122 744 136 105 119 143
122 745 136 113 124 145
123 744 136 114 127 148
123 744 137 115 127 151
123 745 136 116 126 148
123 745 137 109 118 146
122 746 136 111 121 144
122 747 136 96 105 142
123 746 136 103 112 143
123 746 137 100 108 144
123 747 137 94 104 142
121 750 136 89 104 146
121 751 136 92 107 147
122 748 136 90 103 142
122 749 136 92 106 145
122 749 137 111 123 154
123 748 137 105 118 147
123 749 137 126 137 159
122 750 136 101 114 150
122 750 137 116 129 157
122 751 136 110 125 152
122 751 137 118 132 152
123 750 137 126 138 159
123 751 137 129 140 156
124 744 138 105 116 149
124 745 138 95 106 145
125 744 138 97 106 147
125 744 139 93 100 145
125 745 138 87 100 144
125 745 139 86 99 144
124 746 137 97 108 144
124 747 137 109 122 149
124 746 138 100 114 147
124 747 138 133 145 164
125 746 138 97 115 149
125 746 139 93 113 148
125 747 138 128 144 164
125 747 139 110 130 155
126 744 139 93 99 143
126 745 139 92 105 146
127 744 139 101 111 146
127 745 139 100 113 149
126 746 139 88 108 146
126 747 139 79 105 142
127 746 139 87 105 146
127 747 139 65 90 138
127 744 140 106 120 149
127 745 140 99 115 149
127 746 140 82 100 143
127 747 140 69 91 138
124 748 137 126 138 156
124 748 138 143 153 167
124 749 138 136 145 160
125 748 138 137 149 166
125 748 139 112 130 154
125 749 138 132 143 161
125 749 139 111 128 152
124 750 138 119 130 150
124 751 138 127 138 156
125 750 139 117 130 153
125 751 139 104 121 147
126 748 139 70 98 139
126 749 139 73 101 140
127 748 139 58 85 135
126 750 139 94 115 147
126 751 139 101 120 149
126 748 140 56 84 135
127 748 140 73 95 137
127 749 140 77 100 138
126 750 140 90 113 148
126 751 140 101 120 151
127 750 140 76 101 138
127 750 141 106 120 142
127 751 140 87 107 141
127 751 141 94 108 138
