ply
format ascii 1.0
comment Version 2, Copyright 2017, 8i Labs, Inc.
comment frame_to_world_scale 0.179523
comment frame_to_world_translation -45.2095 7.18301 -54.3561
comment width 1023
element vertex 148
property float x
property float y
property float z
property uchar red
property uchar green
property uchar blue
end_header
112 754 96 139 161 187
112 755 96 141 161 188
112 755 97 142 163 189
113 755 96 145 163 187
114 755 96 148 165 188
112 756 97 134 157 184
112 757 97 134 155 183
113 756 96 133 154 181
113 756 97 131 153 180
113 757 97 137 154 183
112 756 98 134 157 185
112 757 98 136 157 183
113 758 97 135 148 180
112 758 98 131 149 178
112 758 99 133 154 181
112 759 99 140 157 182
113 758 98 130 144 176
113 759 98 134 143 177
113 759 99 140 150 182
114 756 96 134 151 178
114 757 96 137 150 181
114 757 97 144 156 187
115 757 96 142 150 181
114 758 97 136 142 179
114 759 97 134 135 177
115 758 96 141 143 180
115 758 97 135 137 177
115 759 97 133 134 176
114 759 98 134 138 177
116 757 96 146 150 181
116 758 96 141 141 178
116 759 96 133 133 177
116 759 97 131 132 176
117 758 96 139 138 176
117 759 96 133 135 176
118 759 96 128 135 175
112 760 99 138 152 177
113 760 98 133 141 178
113 760 99 132 142 177
113 761 99 129 136 173
113 762 99 128 138 175
113 763 99 129 139 176
114 760 97 128 131 175
115 760 97 119 126 172
114 760 98 124 131 173
114 761 98 115 125 172
115 760 98 109 122 170
115 761 98 105 124 172
114 762 98 116 131 176
114 762 99 120 134 177
114 763 99 118 132 176
115 762 98 106 128 176
115 763 98 99 124 174
115 763 99 103 126 176
112 760 100 145 161 182
112 761 100 146 157 183
112 762 100 138 150 178
112 762 101 142 156 181
112 763 101 148 158 184
113 762 100 133 143 175
113 763 100 137 144 178
113 763 101 151 156 184
112 763 102 141 155 188
114 763 100 131 139 178
114 764 99 119 133 179
115 764 99 105 126 178
113 764 101 153 155 184
113 765 101 146 148 180
112 764 102 151 159 189
112 764 103 130 142 182
112 765 102 146 153 184
112 765 103 134 142 180
113 765 102 150 154 185
112 766 103 153 159 187
112 767 103 153 157 188
113 766 102 141 145 186
113 766 103 151 154 187
113 767 103 140 145 187
114 764 100 128 136 178
114 765 100 118 128 173
114 765 101 133 138 178
115 764 100 107 123 175
115 765 100 100 120 174
114 766 101 121 132 180
114 767 101 98 120 180
115 766 100 101 122 176
115 766 101 106 126 179
115 767 101 91 121 179
114 766 102 122 132 183
114 767 102 104 120 181
114 767 103 116 127 183
116 760 97 113 126 171
116 761 97 101 125 171
117 760 96 118 133 172
117 760 97 105 130 169
117 761 97 100 128 173
116 761 98 102 127 174
117 762 97 85 122 168
117 763 97 79 119 167
116 762 98 99 125 175
116 763 98 94 123 176
116 763 99 100 126 180
117 762 98 90 122 171
117 763 98 84 120 172
118 760 96 122 141 173
118 761 96 106 135 169
118 761 97 93 129 170
118 762 96 91 126 165
118 762 97 79 121 163
118 763 96 84 121 159
118 763 97 84 122 164
119 762 96 105 133 165
119 763 96 95 126 162
117 764 97 82 121 171
116 764 98 92 122 179
116 764 99 92 120 178
116 765 99 86 114 174
117 764 98 81 119 174
117 764 99 81 116 176
117 765 98 74 112 171
117 765 99 80 113 173
117 766 99 84 114 173
117 767 99 86 116 174
118 764 97 83 121 168
118 765 97 80 119 167
119 764 96 101 130 164
119 764 97 90 126 167
119 765 96 98 126 161
119 765 97 89 125 165
118 765 98 73 114 169
118 766 97 84 120 166
119 766 96 92 123 158
119 766 97 90 123 162
119 767 97 88 120 155
118 766 98 79 113 168
118 767 98 77 107 163
118 767 99 82 111 170
119 767 98 78 110 157
116 765 100 89 116 174
116 766 100 90 119 177
116 767 100 89 121 179
116 767 101 85 121 178
117 767 100 87 119 178
112 766 104 161 165 190
112 767 104 157 158 189
112 767 105 161 160 192
120 766 96 94 121 156
120 767 96 92 121 156
