ply
format ascii 1.0
comment Version 2, Copyright 2017, 8i Labs, Inc.
comment frame_to_world_scale 0.179523
comment frame_to_world_translation -45.2095 7.18301 -54.3561
comment width 1023
element vertex 146
property float x
property float y
property float z
property uchar red
property uchar green
property uchar blue
end_header
112 775 112 137 157 183
112 768 125 106 122 164
112 769 125 93 114 161
112 768 126 105 124 166
112 768 127 90 112 159
112 769 126 85 111 161
112 769 127 78 103 158
112 770 125 92 118 161
112 771 125 109 132 159
112 770 126 80 110 160
112 770 127 67 100 156
112 771 126 98 124 159
112 771 127 73 103 151
112 772 126 116 137 158
112 772 127 84 111 151
112 773 126 113 131 150
112 773 127 85 113 149
112 774 126 106 126 147
112 774 127 79 106 146
112 775 126 103 124 145
112 775 127 72 99 139
112 776 112 149 165 189
112 776 113 148 164 187
112 777 112 153 167 191
112 777 113 151 165 187
113 777 112 157 169 194
112 777 114 126 150 179
112 777 115 131 150 182
112 778 113 152 166 189
113 778 112 158 170 194
113 778 113 152 166 189
113 779 112 158 169 190
113 779 113 152 167 191
112 778 114 131 153 184
112 778 115 129 150 183
112 779 114 130 153 186
112 779 115 127 149 184
113 779 114 136 157 189
113 779 115 127 151 186
114 779 112 166 175 191
112 778 116 125 147 182
112 778 117 119 140 178
112 779 116 126 148 184
112 779 117 129 149 182
112 778 118 127 145 181
112 779 118 141 159 185
112 779 119 142 159 181
113 780 113 148 164 190
112 780 115 128 151 187
113 780 114 136 157 189
113 780 115 129 152 188
113 781 114 133 154 189
113 781 115 127 149 189
113 782 115 126 148 190
114 780 112 161 171 188
114 780 113 146 161 184
114 781 112 156 167 186
114 781 113 141 159 186
115 781 112 167 175 191
114 781 114 137 160 190
114 782 113 135 157 186
115 782 112 166 176 192
115 782 113 141 161 187
115 783 112 168 178 194
115 783 113 143 165 192
114 782 114 127 151 187
114 782 115 122 144 189
114 783 114 123 149 188
114 783 115 118 144 187
115 783 114 131 158 191
112 780 116 128 151 184
112 780 117 134 153 183
113 780 116 124 149 184
113 781 116 123 149 186
113 781 117 132 152 182
112 780 118 151 164 188
112 780 119 151 165 185
112 781 118 148 161 185
112 781 119 150 163 184
113 781 118 147 161 185
113 781 119 152 163 185
113 782 116 123 148 188
113 782 117 131 151 185
113 783 116 123 149 189
113 783 117 127 148 185
113 782 118 148 161 186
113 782 119 154 163 186
113 783 118 142 157 187
113 783 119 153 163 186
114 783 116 121 149 187
114 783 117 122 147 184
116 783 112 175 183 196
112 779 120 147 163 185
112 779 121 131 147 176
112 779 122 113 128 169
112 779 123 111 123 165
112 777 125 118 125 151
112 776 126 108 124 142
112 776 127 98 116 141
112 777 126 118 127 146
112 777 127 119 128 146
112 778 124 109 117 155
112 778 125 115 121 153
112 779 124 108 123 161
112 779 125 109 123 158
112 778 126 112 119 147
112 778 127 110 118 146
112 779 126 106 121 154
112 779 127 104 116 151
112 780 120 154 167 189
112 780 121 125 145 178
112 781 120 160 169 189
112 781 121 124 147 178
112 780 122 97 121 171
112 780 123 100 123 169
112 781 122 95 124 175
112 781 123 101 127 173
113 781 123 106 129 172
113 782 120 159 168 187
113 782 121 120 146 176
113 783 120 159 168 186
113 783 121 116 143 174
113 782 122 95 124 174
113 782 123 107 129 173
113 783 122 94 121 173
113 783 123 106 125 173
112 780 124 105 128 164
112 780 125 114 132 164
112 781 124 110 133 167
112 781 125 119 139 167
113 781 124 113 136 169
113 781 125 120 140 167
112 780 126 111 128 160
112 780 127 106 119 157
113 780 126 96 116 152
113 780 127 91 106 150
113 781 126 101 125 153
113 781 127 70 102 139
113 782 124 115 136 169
113 782 125 125 143 167
113 783 124 117 136 169
113 783 125 134 149 170
113 782 126 131 147 166
113 782 127 130 147 167
113 783 126 150 160 176
113 783 127 153 164 181
