ply
format ascii 1.0
comment Version 2, Copyright 2017, 8i Labs, Inc.
comment frame_to_world_scale 0.179523
comment frame_to_world_translation -45.2095 7.18301 -54.3561
comment width 1023
element vertex 646
property float x
property float y
property float z
property uchar red
property uchar green
property uchar blue
end_header
151 560 117 60 78 104
151 561 116 55 73 101
151 561 117 57 74 101
150 560 118 55 74 103
150 560 119 47 68 100
150 561 118 56 70 95
150 561 119 51 70 101
151 560 118 61 78 101
151 561 118 51 70 98
151 562 116 44 66 101
151 562 117 44 65 98
151 563 116 38 59 101
151 563 117 41 59 98
150 562 118 49 64 93
150 562 119 40 61 97
150 563 118 41 59 96
150 563 119 39 59 94
151 562 118 48 65 95
151 563 118 39 58 97
151 564 116 39 59 100
151 564 117 42 60 97
151 565 116 47 63 100
151 565 117 45 62 98
150 564 118 40 59 95
150 564 119 43 60 93
150 565 118 42 60 95
150 565 119 43 61 94
151 564 118 40 59 96
151 565 118 42 60 95
151 566 117 48 60 96
151 567 116 48 59 96
151 567 117 47 60 96
150 566 119 44 61 95
150 567 119 40 60 94
151 566 118 45 60 96
151 566 119 43 60 95
151 567 118 42 59 95
151 567 119 42 60 95
145 560 123 72 66 69
145 561 123 68 62 70
145 562 123 59 57 70
147 560 121 55 65 85
147 561 121 51 59 82
146 560 123 67 65 73
146 561 123 61 59 76
147 560 122 61 66 82
147 561 122 51 62 88
147 562 121 47 56 81
146 562 123 56 56 76
146 563 123 51 58 78
147 562 122 48 54 82
147 563 122 49 57 79
147 563 123 51 59 79
144 560 124 78 68 65
144 561 124 74 64 66
145 560 124 76 68 67
145 561 124 69 63 69
144 562 124 70 62 67
144 562 125 69 62 66
144 563 124 63 61 71
144 563 125 58 59 71
145 562 124 66 61 71
145 563 124 60 59 72
146 564 123 51 59 81
146 565 123 55 62 87
147 564 122 34 56 84
147 564 123 51 60 81
147 565 122 39 62 94
147 565 123 44 64 94
146 566 123 46 65 94
147 566 122 48 62 92
147 566 123 43 63 94
147 567 122 37 61 94
147 567 123 36 61 95
144 564 124 62 59 69
144 564 125 57 59 72
144 565 125 53 58 74
145 564 124 53 58 77
145 565 124 50 58 80
144 566 125 51 60 79
144 567 125 49 63 85
145 566 124 47 61 86
145 566 125 52 62 83
145 567 125 43 61 88
144 567 126 54 61 78
146 565 124 43 60 86
146 566 124 44 62 90
146 567 124 40 61 91
148 560 120 55 62 81
148 560 121 54 61 81
148 561 121 46 58 82
149 560 120 59 67 89
149 561 120 48 66 97
148 562 121 36 56 85
148 563 121 31 56 90
149 562 120 32 58 98
149 563 120 29 56 95
148 564 121 42 66 101
148 565 121 50 64 95
149 564 120 44 62 95
149 565 120 46 62 94
149 565 121 48 63 94
148 564 122 40 62 93
148 565 122 51 63 93
148 566 121 45 62 94
149 566 120 43 62 95
149 566 121 44 62 94
149 567 120 36 65 99
149 567 121 35 63 97
148 566 122 46 62 93
148 567 122 39 63 95
148 567 123 35 61 94
150 565 120 45 61 94
150 566 120 43 61 95
150 567 120 39 59 94
151 568 117 41 59 95
151 569 117 39 59 94
150 568 119 38 59 94
151 568 118 40 59 95
151 568 119 38 59 94
151 569 118 38 58 94
151 569 119 36 58 94
151 570 117 38 58 94
151 570 118 36 57 93
151 570 119 34 57 94
147 568 123 28 56 91
147 569 123 28 56 91
145 568 125 41 59 87
145 569 125 31 52 85
144 568 126 47 58 82
144 569 126 39 52 80
145 569 126 32 50 85
145 570 125 36 55 85
145 571 125 42 58 87
144 570 126 45 48 76
144 571 126 53 55 75
144 571 127 57 55 71
145 570 126 40 51 80
145 571 126 56 62 81
146 568 124 31 58 92
146 568 125 35 56 88
146 569 124 26 53 89
146 569 125 29 54 89
147 568 124 27 53 90
147 569 124 32 57 89
146 570 124 42 62 91
146 570 125 44 64 92
146 571 125 39 62 89
147 570 124 41 63 94
147 571 124 41 67 93
147 571 125 37 60 89
146 571 126 49 64 89
144 572 127 62 55 65
144 573 127 64 56 59
145 572 126 51 58 75
145 572 127 51 55 73
145 573 126 53 58 72
145 573 127 60 56 64
144 574 127 65 57 58
144 575 127 65 57 55
145 574 126 57 58 67
145 574 127 61 56 61
145 575 126 57 57 64
145 575 127 60 54 55
146 573 125 40 60 83
147 572 125 36 62 89
147 573 125 36 63 90
146 572 126 43 57 79
146 573 126 44 58 77
146 574 125 47 61 82
147 574 125 42 59 85
147 575 125 32 52 86
146 574 126 52 61 76
146 575 126 47 54 68
149 568 121 26 57 93
149 569 121 27 59 92
148 568 122 24 56 92
148 568 123 20 55 89
148 569 122 33 59 95
148 569 123 28 55 92
149 568 122 25 57 93
149 569 122 28 57 92
148 570 123 39 64 94
149 570 122 29 58 88
149 570 123 28 57 88
149 571 123 28 57 87
150 568 120 34 58 94
150 568 121 30 57 92
150 569 120 31 58 93
150 569 121 27 56 92
151 569 120 34 58 94
150 570 121 27 55 91
151 570 120 32 56 92
151 570 121 27 54 90
151 571 121 28 47 82
150 570 122 27 55 88
150 571 122 26 52 85
150 571 123 25 51 85
151 571 122 25 47 84
151 571 123 36 52 87
148 570 124 43 66 95
148 571 124 33 61 89
148 571 125 31 56 87
149 571 124 25 53 85
148 572 125 30 58 88
148 573 125 36 61 91
149 572 124 34 57 92
149 572 125 35 58 92
149 573 124 38 58 93
149 573 125 40 61 94
148 574 125 36 59 94
148 575 125 33 55 91
149 574 125 36 54 95
149 575 125 34 53 92
150 572 124 37 55 90
150 572 125 40 59 92
150 573 125 36 53 91
151 572 124 38 54 88
151 572 125 38 51 85
151 573 125 30 48 83
150 574 125 39 55 96
150 575 125 34 52 89
151 574 125 23 48 83
151 575 125 24 46 77
151 575 126 15 38 67
152 561 115 62 80 107
153 560 115 50 73 104
153 561 114 55 77 112
153 561 115 53 76 109
152 562 115 51 71 108
152 563 115 41 63 106
153 562 114 48 70 111
153 563 114 37 62 107
154 560 114 56 78 109
154 560 115 55 76 107
154 561 114 59 79 113
155 560 114 62 82 112
155 560 115 64 83 111
155 561 114 63 81 114
154 562 113 43 66 110
154 563 113 39 63 107
155 563 113 41 64 108
154 562 114 48 69 111
154 563 114 40 63 108
155 562 114 52 73 111
155 563 114 37 60 106
152 560 116 55 76 104
152 561 116 58 76 104
152 562 116 51 69 104
152 563 116 44 63 104
153 565 113 56 72 103
152 564 115 44 63 104
152 565 115 57 72 102
153 564 114 47 67 106
153 565 114 55 72 104
153 566 113 52 70 101
153 567 113 54 71 102
152 566 115 52 67 99
152 567 114 54 66 102
152 567 115 56 67 102
153 566 114 52 68 100
153 567 114 55 68 103
154 564 113 50 70 106
154 565 113 50 69 101
155 564 113 33 60 105
155 565 113 49 69 102
154 566 113 54 73 103
154 567 113 53 73 103
155 566 113 52 73 103
155 567 113 48 73 102
152 564 116 36 57 102
152 565 116 48 65 102
152 566 116 51 64 98
152 567 116 51 63 99
156 560 115 67 84 108
156 561 114 66 82 115
156 561 115 66 83 112
156 562 114 48 69 109
156 562 115 45 68 106
156 563 114 31 57 103
156 563 115 27 55 100
156 560 116 65 84 108
156 560 117 67 83 109
156 561 116 64 80 109
156 561 117 58 75 107
156 560 118 67 84 112
156 560 119 68 85 112
156 561 118 56 71 108
156 561 119 52 69 108
156 562 116 43 65 103
156 562 117 30 56 100
156 563 116 24 53 99
156 563 117 20 49 96
157 563 116 21 50 97
157 563 117 11 42 95
156 562 118 28 50 100
156 562 119 27 50 100
156 563 118 14 44 96
156 563 119 11 44 96
156 565 113 46 68 103
156 564 114 22 52 101
156 564 115 26 52 100
156 565 114 42 66 98
156 565 115 50 69 99
156 566 113 51 74 103
156 567 113 47 73 102
156 566 114 46 70 98
156 566 115 46 68 94
156 567 114 49 73 100
157 567 114 48 69 97
157 567 115 52 70 97
156 564 116 28 51 99
156 565 116 55 71 100
157 564 116 24 50 98
157 564 117 31 56 99
157 565 116 56 73 98
157 565 117 57 72 98
156 564 118 35 62 100
156 564 119 29 61 98
156 565 118 60 76 98
156 565 119 61 79 100
157 564 118 23 54 97
157 566 116 47 68 91
157 566 117 52 70 89
157 567 116 52 69 94
157 567 117 49 65 89
156 566 118 53 69 87
156 566 119 53 69 85
156 567 118 44 61 84
156 567 119 47 64 85
157 567 118 45 62 86
155 560 123 41 70 103
155 561 123 33 59 97
155 562 123 20 53 97
155 560 124 23 58 98
155 560 125 26 59 95
155 561 124 17 49 90
155 561 125 17 46 88
155 560 126 24 53 94
155 560 127 19 48 91
155 562 124 15 46 87
155 562 125 14 41 83
155 563 124 15 42 87
155 563 125 20 43 85
155 564 124 15 35 84
156 560 120 73 91 119
156 560 121 76 95 121
156 561 120 52 73 113
156 561 121 55 77 115
156 560 122 69 90 118
156 560 123 55 79 108
156 561 122 48 72 112
156 561 123 41 65 105
156 562 120 20 53 102
156 562 121 17 53 103
156 563 120 11 47 97
156 563 121 15 50 99
156 562 122 24 56 103
156 562 123 19 51 98
156 563 122 16 49 99
156 563 123 17 49 94
156 560 126 23 49 93
156 560 127 19 43 92
156 561 126 17 45 89
156 561 127 20 44 91
156 562 125 16 42 83
156 563 124 13 40 88
156 563 125 19 40 85
156 562 126 15 41 85
156 562 127 16 41 88
156 563 126 20 40 85
156 563 127 16 39 86
156 564 120 40 67 101
156 564 121 39 66 102
156 565 120 60 80 100
156 565 121 61 81 100
156 564 122 24 56 98
156 564 123 16 51 93
156 565 122 56 79 98
156 565 123 48 74 96
156 566 120 50 69 86
156 566 121 46 69 88
156 567 120 41 63 84
156 567 121 44 67 89
156 566 122 52 76 94
156 566 123 60 84 103
156 567 122 44 71 93
156 567 123 54 82 104
156 564 124 19 42 88
156 564 125 20 37 85
156 565 124 33 60 89
156 565 125 18 41 81
156 564 126 21 37 84
156 564 127 18 40 85
156 565 126 24 41 81
156 565 127 23 44 83
157 565 127 21 42 85
156 566 124 54 79 99
156 566 125 34 60 87
156 567 124 57 84 106
156 567 125 45 74 99
156 566 126 25 48 81
156 566 127 22 38 79
156 567 126 31 53 87
156 567 127 32 40 78
157 566 127 21 35 78
157 567 127 26 35 72
153 568 113 52 71 101
153 569 113 42 65 97
152 568 114 51 68 101
152 568 115 48 66 100
152 569 114 43 64 97
152 569 115 43 64 97
153 568 114 51 69 101
153 569 114 48 68 100
153 570 113 36 59 94
153 571 113 31 55 90
152 570 114 39 61 95
152 570 115 39 60 94
152 571 114 35 56 92
152 571 115 36 58 93
153 571 114 33 56 91
154 568 112 50 72 101
154 568 113 50 72 102
154 569 112 32 59 95
154 569 113 45 68 99
155 568 112 47 71 100
155 569 112 35 62 97
154 570 112 34 59 93
154 571 112 30 55 91
155 570 112 35 59 95
155 571 112 29 55 90
152 568 116 43 62 97
152 569 116 41 61 95
152 569 117 40 60 94
152 570 116 39 58 93
152 570 117 37 58 93
152 571 116 36 56 92
152 571 117 36 56 92
152 571 118 35 56 93
152 571 119 34 54 92
153 572 113 32 54 90
153 573 113 32 53 89
152 572 114 33 54 90
152 572 115 35 54 90
152 573 115 34 53 90
153 572 114 32 54 90
153 573 114 32 53 89
153 573 115 34 52 89
153 574 113 32 52 88
153 575 113 32 51 88
153 574 114 33 52 89
153 574 115 34 52 89
153 575 114 33 51 88
153 575 115 34 50 88
154 572 112 30 53 89
154 572 113 30 54 90
154 573 112 31 52 89
155 572 112 29 53 89
155 573 112 29 53 88
154 574 112 32 52 88
154 575 112 32 51 88
154 575 113 32 51 88
154 575 115 34 50 88
152 572 116 35 54 91
152 572 117 35 54 91
152 573 116 35 53 90
152 573 117 35 53 90
153 573 116 34 52 90
153 573 117 35 52 89
152 572 118 35 53 90
152 572 119 36 52 90
152 573 118 35 52 90
153 572 119 36 49 89
153 573 118 35 51 89
153 573 119 36 50 89
153 574 116 34 51 89
153 574 117 35 51 89
153 575 116 34 50 88
155 573 117 35 47 86
154 572 119 34 46 87
154 573 118 35 49 87
154 573 119 35 49 88
155 572 119 33 43 85
155 573 118 35 45 85
154 574 117 35 50 88
154 575 116 34 50 88
154 575 117 35 49 87
155 574 117 35 48 86
155 575 116 35 48 87
154 574 118 35 48 87
156 568 112 44 69 101
156 568 113 40 69 101
156 569 112 33 61 97
156 569 113 34 65 102
157 568 113 37 63 98
157 569 112 18 53 96
157 569 113 30 58 98
157 568 114 42 64 98
157 568 115 44 63 94
157 569 114 35 58 93
157 569 115 35 55 89
156 570 112 33 58 94
156 571 112 25 52 90
157 570 112 24 53 94
157 570 113 23 54 92
157 571 112 30 53 91
157 571 113 27 54 93
157 570 114 27 55 85
158 569 115 40 60 86
158 571 113 34 52 86
158 570 114 28 55 84
158 570 115 31 54 81
158 571 114 34 52 82
158 571 115 38 52 80
157 568 116 45 62 91
157 568 117 47 60 87
157 569 116 37 53 84
157 569 117 38 53 80
156 568 119 34 53 82
156 569 119 32 48 75
157 568 118 41 56 85
157 569 118 40 53 79
157 569 119 33 49 76
157 570 116 20 45 72
157 570 117 26 45 73
157 571 117 37 46 78
156 570 119 31 43 72
156 571 118 32 37 80
156 571 119 33 38 79
157 570 118 36 48 78
157 570 119 29 44 71
157 571 118 38 45 81
158 569 116 40 58 87
158 570 116 21 48 74
158 571 116 35 49 76
157 572 112 33 52 89
157 573 112 37 54 89
157 575 115 36 47 86
158 572 112 34 50 89
158 572 113 35 49 86
158 573 112 39 52 90
158 573 113 36 47 88
158 572 114 32 46 78
158 572 115 34 44 81
158 573 114 37 47 87
158 573 115 36 45 86
158 574 112 36 50 88
158 574 113 39 48 87
158 575 112 36 50 87
158 575 113 37 48 87
159 574 112 37 46 86
159 575 112 37 48 86
158 574 114 38 47 87
158 574 115 36 46 86
158 575 114 37 47 87
158 575 115 36 47 86
156 573 117 36 46 85
157 572 117 37 45 82
157 573 116 37 46 85
157 573 117 37 46 85
156 572 118 35 42 83
156 572 119 34 42 83
156 573 118 36 45 84
157 572 118 36 43 82
156 574 116 36 47 86
156 574 117 36 47 86
156 575 116 35 47 86
157 574 116 36 46 85
157 575 116 35 47 86
158 572 116 34 44 79
158 573 116 36 45 85
158 574 116 36 46 86
152 571 120 33 49 89
152 571 121 32 46 84
153 571 120 35 46 89
153 571 121 36 46 88
152 571 122 31 48 87
152 571 123 40 56 89
153 571 122 42 50 87
153 571 123 46 58 90
155 569 123 35 51 77
154 571 121 37 43 84
155 570 121 39 44 78
155 571 120 34 39 82
155 571 121 37 43 82
154 571 122 40 46 84
154 571 123 47 53 88
155 570 122 40 43 83
155 570 123 42 46 83
155 571 122 38 39 82
155 571 123 41 47 86
152 571 124 38 51 86
153 571 124 48 55 89
153 571 125 39 49 86
153 571 126 33 41 79
155 569 124 37 61 88
155 569 125 35 60 94
155 569 126 37 55 89
155 569 127 33 49 81
154 570 124 41 43 86
154 570 125 40 46 84
154 571 124 49 55 92
154 571 125 35 44 82
155 570 124 43 46 87
155 570 125 46 55 90
154 570 126 40 49 85
154 571 126 39 41 79
154 571 127 39 41 76
155 570 126 40 48 85
155 570 127 29 43 80
153 572 120 34 46 88
154 572 120 35 44 87
155 572 120 37 42 84
152 572 124 37 50 85
152 572 125 35 45 82
152 573 125 16 35 73
153 572 125 36 44 82
152 573 126 28 34 72
152 573 127 28 29 65
153 572 126 31 35 76
153 572 127 33 37 70
153 573 127 29 30 68
152 574 126 20 35 66
152 574 127 24 27 60
152 575 126 18 38 66
152 575 127 20 32 60
156 568 120 35 55 83
156 568 121 28 54 84
156 569 120 37 49 78
156 569 121 34 48 76
156 568 122 37 63 90
156 568 123 45 74 99
156 569 122 31 49 77
156 569 123 32 56 82
156 570 120 28 41 70
156 570 121 34 43 73
156 571 120 35 39 80
156 571 121 34 39 78
156 570 122 36 45 74
156 568 124 52 83 108
156 568 125 47 77 104
156 568 126 40 62 94
156 568 127 33 42 77
156 569 126 42 67 96
156 569 127 32 47 80
