ply
format ascii 1.0
comment Version 2, Copyright 2017, 8i Labs, Inc.
comment frame_to_world_scale 0.179523
comment frame_to_world_translation -45.2095 7.18301 -54.3561
comment width 1023
element vertex 356
property float x
property float y
property float z
property uchar red
property uchar green
property uchar blue
end_header
151 592 56 125 140 161
151 592 57 123 140 161
151 593 56 127 141 161
151 593 57 124 140 162
150 592 58 121 139 162
150 592 59 118 138 163
150 593 58 124 141 163
150 593 59 121 141 165
151 592 58 122 139 161
151 593 58 123 140 162
151 594 56 130 143 162
151 594 57 125 141 161
151 595 56 133 148 168
151 595 57 119 138 160
150 594 58 117 135 158
150 594 59 113 133 157
150 595 58 108 129 154
150 595 59 116 133 156
151 594 58 119 137 160
151 595 58 109 129 154
149 592 60 114 136 161
149 592 61 111 134 160
149 593 60 110 133 158
149 593 61 108 130 155
148 592 62 107 131 156
148 592 63 107 130 154
148 593 62 114 133 155
148 593 63 127 141 160
149 592 62 108 132 158
149 593 62 110 130 154
149 594 60 114 133 156
149 594 61 124 138 157
149 595 60 132 142 159
149 595 61 144 149 162
148 594 62 142 149 162
148 594 63 152 156 166
148 595 62 158 157 164
148 595 63 161 159 165
149 594 62 133 142 158
149 595 62 152 154 163
150 592 60 116 138 163
150 593 60 114 135 161
150 594 60 113 133 156
150 595 60 126 139 158
151 596 56 119 138 161
151 596 57 109 130 155
151 597 56 109 130 154
151 597 57 115 133 156
150 596 58 118 135 156
150 596 59 125 138 158
150 597 58 135 145 161
150 597 59 139 145 158
151 596 58 109 129 153
151 597 58 125 139 159
151 598 56 119 135 156
151 598 57 133 144 161
151 599 56 138 147 163
151 599 57 149 154 167
150 598 58 157 159 169
150 598 59 158 159 167
150 599 58 161 161 169
150 599 59 161 161 168
151 598 58 148 154 167
151 599 58 158 160 170
149 596 60 135 141 154
149 596 61 137 141 151
149 597 60 148 150 159
149 597 61 154 154 162
148 596 63 160 158 163
148 597 63 158 157 164
149 596 62 150 150 158
149 597 62 158 157 164
149 598 60 157 156 163
149 598 61 158 158 164
149 599 60 160 159 165
149 599 61 156 156 164
148 598 63 137 142 153
148 599 63 137 142 154
149 598 62 151 152 160
149 599 62 146 149 159
150 596 60 133 143 159
150 597 60 139 144 155
150 598 60 154 153 160
150 599 60 162 161 167
151 600 56 149 153 165
151 600 57 147 150 162
151 601 57 150 150 158
150 600 58 146 147 156
150 600 59 153 153 160
150 601 59 148 148 156
151 600 58 144 146 156
151 601 58 144 145 154
151 602 57 154 154 160
151 603 57 160 159 166
150 602 59 161 161 169
150 603 59 160 160 166
151 602 58 157 155 161
151 603 58 163 161 165
149 600 60 159 157 162
149 600 61 158 157 163
149 601 60 159 157 163
149 601 61 160 158 162
148 600 63 152 153 161
148 601 63 158 157 162
149 600 62 152 152 159
149 601 62 159 157 161
149 602 60 151 153 162
149 602 61 150 150 157
149 603 60 140 146 157
149 603 61 129 135 145
148 602 63 130 123 126
148 603 62 114 113 119
148 603 63 108 72 81
149 602 62 150 150 155
149 603 62 113 112 120
150 600 60 158 157 163
150 601 60 155 154 160
150 602 60 156 158 167
150 603 60 149 153 162
151 604 57 155 155 163
151 605 57 144 146 154
150 604 59 159 158 163
150 605 59 156 154 159
151 604 58 163 161 166
151 605 58 158 158 165
151 606 57 157 158 166
151 607 57 159 159 164
150 606 59 125 122 127
150 607 59 112 88 98
151 606 58 157 158 164
151 607 58 137 135 138
149 604 60 132 134 140
149 604 61 118 117 123
149 605 60 114 88 93
149 605 61 113 68 82
148 604 62 112 82 97
148 604 63 110 65 79
148 605 62 111 50 69
148 605 63 109 66 75
149 604 62 112 96 107
149 605 62 113 52 72
149 606 60 120 50 74
149 606 61 120 39 65
149 607 60 110 53 71
149 607 61 104 55 69
148 606 63 97 80 86
148 607 63 98 107 121
149 606 62 110 49 56
149 607 62 97 83 91
149 607 63 99 109 122
150 604 60 145 146 152
150 605 60 135 124 126
150 606 60 112 72 86
150 607 60 106 53 73
154 592 51 155 155 161
154 593 51 156 156 162
155 592 50 150 150 158
155 592 51 153 153 158
155 593 50 154 153 159
155 593 51 157 155 161
154 594 51 152 153 162
155 594 50 144 146 155
155 594 51 145 148 159
155 595 50 143 149 162
155 595 51 132 141 156
153 592 53 136 143 155
153 593 53 129 140 156
152 592 54 127 138 155
152 592 55 127 140 158
152 593 54 127 141 160
152 593 55 128 142 161
153 592 54 129 138 153
153 593 54 125 140 160
153 594 52 128 140 158
153 594 53 126 139 158
153 595 52 126 139 157
153 595 53 130 142 160
152 594 54 130 144 163
152 594 55 132 145 163
152 595 54 137 148 164
152 595 55 138 149 166
153 594 54 128 142 161
153 595 54 132 144 161
154 592 52 150 151 160
154 593 52 148 151 161
154 594 52 135 143 158
154 595 52 123 135 153
154 596 51 122 134 152
155 596 50 134 143 158
155 596 51 126 137 155
155 597 50 124 137 155
155 597 51 123 136 154
155 598 50 124 136 155
155 598 51 127 139 156
155 599 50 118 135 157
155 599 51 120 136 156
153 596 53 136 146 162
153 597 53 142 150 164
152 596 55 143 153 170
152 597 55 123 139 160
153 596 54 142 151 166
153 597 54 142 151 168
153 598 53 138 149 166
153 599 53 114 132 154
152 598 55 106 127 152
152 599 55 111 129 152
153 598 54 119 135 157
153 598 55 106 127 151
153 599 54 106 127 151
154 596 52 126 137 155
154 597 52 133 142 158
154 598 52 139 147 161
154 598 53 139 149 166
154 599 52 126 140 158
154 599 53 123 138 158
156 592 49 148 149 157
156 593 49 145 145 153
157 592 48 145 147 156
157 593 48 146 148 156
156 593 50 143 144 151
156 594 49 136 139 148
156 595 49 153 155 163
157 594 48 148 148 156
157 595 48 156 156 163
156 594 50 137 140 149
156 595 50 152 155 166
156 596 49 155 157 167
156 597 49 140 146 159
157 596 48 159 159 167
157 596 49 158 159 167
157 597 48 142 147 158
157 597 49 144 149 161
156 596 50 144 150 162
156 597 50 131 141 156
156 598 49 118 132 151
156 599 49 108 130 154
157 598 48 114 128 148
157 598 49 117 131 151
157 599 48 102 125 151
157 599 49 102 126 153
156 598 50 123 136 154
156 599 50 115 134 156
158 597 48 134 139 151
158 598 48 119 131 149
152 593 56 126 141 161
152 594 56 133 146 163
152 595 56 139 151 169
152 596 56 129 144 165
152 597 56 107 129 154
152 598 56 111 129 152
152 599 56 123 137 156
155 600 50 112 132 156
155 600 51 106 129 154
155 601 50 108 131 156
155 601 51 98 125 152
155 602 51 100 126 154
155 603 50 104 129 156
155 603 51 102 128 155
153 600 53 93 120 147
153 601 53 90 119 149
152 600 55 123 137 157
152 601 55 135 144 160
153 600 54 104 126 151
153 601 54 107 127 151
153 602 53 88 120 151
153 603 53 90 122 153
152 602 55 135 144 159
152 603 55 133 143 160
153 602 54 101 125 152
153 603 54 102 126 153
154 600 52 95 121 149
154 600 53 92 118 145
154 601 52 86 119 150
154 601 53 82 116 148
154 602 52 87 120 151
154 602 53 84 119 152
154 603 52 94 125 156
154 603 53 87 122 154
155 602 52 94 124 153
155 603 52 98 127 157
155 604 51 98 126 155
155 605 50 96 124 153
155 605 51 95 124 154
155 606 50 94 122 151
155 606 51 90 120 150
155 607 51 89 119 149
153 604 53 94 123 153
153 605 53 105 127 152
152 604 55 135 146 163
152 605 55 145 151 166
153 604 54 109 130 155
153 605 54 126 140 160
153 606 53 132 142 160
153 607 53 153 158 171
152 606 55 154 156 164
152 607 55 167 165 170
153 606 54 147 153 166
153 607 54 165 165 174
154 604 52 92 125 157
154 604 53 92 124 155
154 605 52 91 123 155
154 605 53 95 123 153
155 604 52 95 126 158
155 605 52 93 124 156
154 606 52 93 122 151
154 606 53 108 129 154
154 607 52 111 128 150
154 607 53 125 138 156
155 606 52 91 121 150
155 607 52 96 121 149
156 600 49 104 128 154
156 601 49 106 129 154
157 600 48 96 123 151
157 600 49 99 125 153
157 601 48 100 126 153
157 601 49 102 127 153
156 600 50 109 131 156
156 601 50 108 131 156
156 602 49 110 131 155
156 603 49 110 132 158
157 602 48 102 126 153
157 602 49 110 131 156
157 603 48 103 127 154
157 603 49 107 130 156
156 602 50 108 131 156
156 603 50 108 131 157
158 602 48 101 126 153
158 603 48 101 126 154
156 604 49 108 132 158
156 605 49 105 130 156
157 604 48 101 126 154
157 604 49 107 130 157
157 605 48 107 131 157
157 605 49 108 131 158
156 604 50 102 128 155
156 605 50 99 126 154
156 606 49 105 129 156
156 607 49 114 135 160
157 606 48 111 133 160
157 606 49 110 133 160
157 607 48 113 134 159
157 607 49 119 139 163
156 606 50 96 123 151
156 607 50 106 130 156
158 604 48 100 126 154
158 605 48 103 128 156
158 606 48 104 128 155
158 607 48 111 132 157
152 600 56 141 149 163
152 601 56 154 155 165
152 602 56 156 156 163
152 603 56 155 157 167
152 604 56 144 149 162
152 605 56 132 139 153
152 606 56 146 148 156
152 607 56 164 162 166
