ply
format ascii 1.0
comment Version 2, Copyright 2017, 8i Labs, Inc.
comment frame_to_world_scale 0.179523
comment frame_to_world_translation -45.2095 7.18301 -54.3561
comment width 1023
element vertex 593
property float x
property float y
property float z
property uchar red
property uchar green
property uchar blue
end_header
144 688 131 89 94 104
144 689 131 88 93 101
145 688 130 92 96 105
145 688 131 94 98 106
145 689 131 89 93 101
145 690 131 88 92 100
146 688 130 86 91 100
146 688 131 88 93 101
146 689 131 83 89 98
147 688 130 74 81 91
147 688 131 75 82 92
147 689 131 72 81 91
146 690 131 79 86 96
147 690 131 69 79 90
147 691 131 66 77 89
144 689 132 88 93 101
144 690 132 96 99 106
144 691 132 100 102 109
144 691 133 101 103 109
145 690 132 91 96 103
145 691 132 94 98 106
146 691 132 79 86 96
147 691 132 65 76 89
144 692 132 100 102 109
144 692 133 100 101 108
144 693 133 99 101 107
145 692 132 94 98 106
145 692 133 95 99 106
145 693 133 94 98 105
144 694 133 99 101 107
145 694 133 93 97 105
144 694 134 101 102 108
144 695 134 102 103 110
145 694 134 93 97 105
145 695 134 94 98 106
146 692 132 79 87 97
146 692 133 81 88 98
146 693 133 82 88 98
147 692 132 63 75 89
147 692 133 66 78 91
147 693 133 67 79 91
146 694 133 82 88 98
147 694 133 68 79 92
146 695 134 82 89 99
147 695 134 67 78 91
149 688 129 62 73 85
148 688 130 71 79 89
148 689 130 67 78 89
148 689 131 70 80 90
149 688 130 59 71 84
149 689 130 56 69 83
148 690 131 66 77 89
148 691 131 62 74 87
149 690 130 53 65 80
149 690 131 53 67 81
149 691 131 48 62 79
150 688 129 55 68 82
150 689 129 60 70 86
151 688 128 61 72 88
151 688 129 57 70 86
151 689 129 62 72 91
150 688 130 56 68 82
150 689 130 56 68 82
151 690 129 56 65 88
151 691 129 47 56 83
150 690 130 53 65 82
150 691 130 47 59 79
150 691 131 43 58 78
151 690 130 55 64 86
151 691 130 44 54 81
148 691 132 64 76 89
150 692 130 35 45 75
150 692 131 38 51 74
150 693 131 41 54 74
151 692 130 33 42 73
151 692 131 37 48 73
151 693 130 48 56 81
151 693 131 47 57 79
151 694 131 58 66 86
151 695 131 62 65 92
148 692 132 57 71 85
148 693 132 47 63 78
148 693 133 55 70 84
149 692 132 42 56 76
149 693 132 42 56 73
149 693 133 47 62 77
148 694 133 58 70 83
148 695 133 55 68 80
149 694 133 51 63 77
149 695 133 53 62 77
148 695 134 56 69 83
149 695 134 53 62 78
150 692 132 37 52 73
150 693 132 45 58 75
150 694 132 50 60 80
150 695 132 54 58 84
150 695 133 51 59 80
151 694 132 53 59 83
151 695 132 61 66 89
144 696 134 102 104 110
144 697 135 100 104 111
145 696 134 93 98 106
145 697 134 88 95 106
145 697 135 89 96 107
144 698 135 95 101 111
144 699 135 83 92 105
145 698 135 78 89 102
145 699 135 58 76 93
146 696 134 79 89 100
146 697 134 75 86 99
146 697 135 64 78 93
147 696 134 62 75 88
147 697 134 53 69 83
147 697 135 48 65 80
146 698 135 54 72 89
146 699 135 50 68 88
147 698 135 46 63 80
147 699 135 50 65 82
145 700 135 55 73 93
146 700 135 51 68 89
147 700 135 51 65 83
147 701 135 51 65 84
147 702 135 54 68 85
151 696 131 69 76 98
148 696 134 50 62 79
148 697 134 43 58 75
149 696 134 49 58 77
149 697 134 48 58 80
148 698 134 45 60 77
148 698 135 45 60 77
148 699 134 50 63 78
148 699 135 49 63 78
149 698 134 55 66 84
149 699 134 59 70 85
150 696 133 53 58 84
150 697 133 58 68 91
151 696 132 65 71 95
151 697 132 68 78 100
151 697 133 62 73 97
150 697 134 49 56 82
150 698 133 66 75 96
150 699 133 73 83 98
151 698 132 67 78 100
151 698 133 69 79 98
151 699 132 72 83 99
151 699 133 73 83 100
150 698 134 62 72 91
150 699 134 69 79 95
148 700 135 52 64 79
148 701 135 55 66 81
149 700 134 59 69 84
149 700 135 58 68 82
149 701 134 61 72 87
149 701 135 60 70 85
148 702 135 58 69 85
148 703 135 62 73 89
149 702 134 63 73 91
149 702 135 63 73 89
149 703 134 70 80 95
149 703 135 68 78 93
150 700 133 77 86 100
151 700 132 77 88 103
151 700 133 79 88 102
151 701 132 79 89 103
151 701 133 72 82 97
150 700 134 68 78 92
150 701 134 65 76 91
151 702 132 74 86 100
151 702 133 75 85 100
151 703 132 75 86 101
151 703 133 78 88 102
150 702 134 70 81 96
150 703 134 75 85 99
150 703 135 72 82 96
151 703 134 78 87 101
144 700 136 68 82 98
144 701 136 66 81 98
145 700 136 59 76 94
145 701 136 61 77 95
144 702 136 67 81 99
144 703 137 63 77 95
145 702 136 60 75 94
145 703 136 63 77 94
145 703 137 63 77 94
146 700 136 52 70 91
146 701 136 51 68 89
146 702 136 54 71 90
146 703 136 58 75 91
147 702 136 53 69 87
147 703 136 56 71 88
148 703 136 61 73 89
152 688 128 62 74 92
152 689 128 62 71 94
152 689 129 62 70 92
153 689 128 60 70 94
152 690 128 51 61 88
152 690 129 46 55 85
152 691 129 36 44 79
153 690 128 44 54 87
153 691 128 43 52 85
153 691 129 29 35 77
152 692 129 35 42 77
152 693 129 48 54 81
153 692 128 43 52 82
153 692 129 38 44 78
153 693 128 36 46 78
153 693 129 38 50 80
152 692 130 29 39 73
152 693 130 46 54 81
153 694 129 53 64 88
153 695 129 60 70 92
152 694 130 57 65 89
152 695 130 58 63 89
152 695 131 69 75 96
153 695 130 62 71 91
154 692 128 47 54 83
154 693 128 44 54 83
154 694 128 54 64 88
154 695 128 63 73 94
154 695 129 63 72 94
159 688 131 70 80 100
159 689 131 76 84 104
159 690 130 65 78 99
159 690 131 70 80 101
159 691 130 65 79 100
159 691 131 67 80 100
157 688 135 93 95 107
157 689 134 88 90 105
157 689 135 94 95 107
157 690 133 72 81 102
157 691 133 71 82 101
157 690 134 80 87 103
157 690 135 90 93 106
157 691 134 78 87 103
157 691 135 85 89 105
158 688 132 73 80 99
158 688 133 79 86 101
158 689 132 73 80 101
158 689 133 74 82 101
159 688 132 71 79 98
159 689 132 81 89 107
158 688 134 85 88 101
158 688 135 88 91 105
158 689 134 83 88 103
158 690 132 73 82 101
158 690 133 69 78 99
158 691 132 71 83 101
158 691 133 69 80 98
159 693 129 79 91 107
158 692 131 71 84 101
158 693 131 78 89 104
159 692 130 67 82 101
159 692 131 70 84 101
159 693 130 76 89 104
159 693 131 77 88 104
159 694 128 84 95 109
159 694 129 83 94 108
159 695 128 89 99 111
159 695 129 88 98 110
158 694 131 82 93 107
158 695 130 89 99 111
158 695 131 87 97 110
159 694 130 82 93 107
159 694 131 80 91 106
159 695 130 87 97 110
157 692 133 74 86 102
157 693 133 78 90 104
156 692 135 86 91 107
156 693 134 84 94 106
156 693 135 85 92 105
157 692 134 81 91 105
157 692 135 86 92 105
157 693 134 81 92 105
157 694 132 83 94 107
157 694 133 81 93 106
157 695 132 84 95 107
157 695 133 83 94 107
156 694 134 83 94 106
156 694 135 82 91 105
156 695 134 82 93 108
156 695 135 77 88 106
157 694 134 82 94 106
157 695 134 83 94 107
158 692 132 72 85 102
158 692 133 70 83 101
158 693 132 74 87 102
158 694 132 85 95 108
155 688 141 116 123 135
155 689 141 99 112 128
154 688 143 95 108 124
154 689 143 88 101 120
155 688 142 119 125 136
155 688 143 105 114 128
155 689 142 98 109 125
155 690 141 92 106 131
155 691 140 73 89 128
155 691 141 90 103 131
154 690 142 114 122 135
154 690 143 107 114 128
154 691 142 101 111 128
154 691 143 106 112 123
155 690 142 113 121 136
155 691 142 98 109 129
155 693 139 64 84 128
155 695 137 70 84 117
155 694 138 63 81 124
155 694 139 52 77 124
155 695 138 68 82 122
155 695 139 56 79 124
153 693 143 61 68 117
153 694 143 58 73 117
153 695 143 54 76 118
154 693 141 74 88 130
155 692 140 75 91 133
155 692 141 79 93 130
155 693 140 81 97 137
155 693 141 75 90 132
154 692 142 72 83 117
154 692 143 78 86 114
154 693 142 65 78 122
154 693 143 64 72 116
155 692 142 81 93 122
154 694 141 71 88 129
154 695 141 64 85 127
155 694 140 66 87 132
155 694 141 74 93 133
155 695 140 61 83 129
154 694 142 63 80 122
154 694 143 60 74 118
154 695 142 59 79 121
157 688 136 91 99 112
157 688 137 89 101 116
157 689 136 97 102 113
157 689 137 90 101 115
156 688 139 71 83 117
156 689 138 67 81 110
156 689 139 66 79 115
157 688 138 82 93 114
157 688 139 70 83 114
157 689 138 74 88 110
156 690 137 91 104 122
156 691 136 88 95 112
156 691 137 90 103 121
157 690 136 97 102 114
157 690 137 96 106 121
157 691 136 92 97 113
156 690 138 71 87 113
156 690 139 58 74 117
156 691 138 66 86 115
156 691 139 55 75 119
158 688 136 88 95 109
156 688 140 82 95 121
156 688 141 107 116 131
156 689 140 82 96 125
156 689 141 95 108 130
156 690 140 67 83 124
156 691 140 62 79 124
156 692 136 81 91 111
156 692 137 75 91 115
156 693 136 79 88 110
156 693 137 68 83 115
156 692 138 61 82 117
156 692 139 63 83 125
156 693 138 61 80 121
156 693 139 58 81 124
156 694 136 77 86 109
156 694 137 72 86 117
156 695 136 72 84 109
156 695 137 72 85 116
156 694 138 64 82 123
156 692 140 63 81 128
153 696 129 71 82 101
153 697 129 73 84 103
152 696 130 65 73 96
152 696 131 67 75 98
152 697 130 73 83 101
152 697 131 70 80 101
153 696 130 69 78 98
153 697 130 74 84 102
153 698 129 74 85 105
153 699 129 76 87 107
152 698 130 75 86 104
152 698 131 73 84 102
152 699 131 77 87 105
153 698 130 75 86 105
153 699 130 77 87 106
154 696 128 70 81 101
154 697 128 73 84 103
154 697 129 74 84 103
155 697 128 74 84 105
154 698 128 74 85 105
154 698 129 74 85 106
154 699 129 74 85 106
155 698 128 74 85 106
155 699 128 72 84 107
152 698 132 73 84 100
152 699 132 75 85 101
155 699 135 65 86 109
152 700 131 77 88 105
152 701 131 84 93 107
153 700 130 78 89 107
153 701 130 76 88 106
153 701 131 80 91 106
152 702 131 80 90 105
152 703 131 83 92 106
153 702 130 79 90 105
153 702 131 80 91 106
153 703 130 84 94 108
153 703 131 84 93 107
154 700 129 75 86 108
154 701 129 75 87 107
155 700 128 69 82 106
155 700 129 73 84 109
155 701 128 77 90 108
155 701 129 77 89 108
154 702 129 77 89 105
154 703 129 80 91 107
155 702 128 85 97 112
155 702 129 80 92 108
155 703 129 79 92 107
154 702 130 80 92 107
154 703 130 81 92 107
152 700 132 77 87 103
152 701 132 83 92 106
152 702 132 77 88 104
152 703 132 80 90 104
155 700 135 61 83 108
155 701 135 60 82 106
155 702 135 56 80 104
155 703 135 57 79 104
157 697 131 86 95 108
156 698 128 74 86 107
156 699 128 73 86 107
157 698 131 88 97 109
157 699 131 95 102 112
158 697 129 94 101 111
159 696 128 90 99 110
159 696 129 91 99 110
159 697 128 93 100 111
159 697 129 92 100 111
158 696 130 89 98 109
158 696 131 88 97 109
158 697 130 91 99 109
158 697 131 88 96 108
159 696 130 90 98 110
158 698 129 98 104 114
158 699 128 90 99 111
158 699 129 99 104 114
159 698 128 99 105 116
159 698 129 98 103 114
158 698 130 95 101 111
158 698 131 89 97 108
158 699 130 98 104 113
158 699 131 95 102 112
156 697 133 87 98 111
157 696 132 87 96 109
157 696 133 83 93 107
157 697 132 85 95 108
157 697 133 87 96 109
156 696 134 83 94 108
156 696 135 74 87 105
156 697 134 83 96 110
156 697 135 72 90 106
156 698 133 79 93 107
156 699 133 75 91 107
157 698 132 84 95 107
157 698 133 82 94 107
157 699 132 88 98 110
157 699 133 77 92 107
156 698 134 76 91 106
156 698 135 71 90 108
156 699 134 71 89 106
156 699 135 71 89 106
156 700 128 74 87 108
156 701 128 84 96 113
157 700 128 75 90 108
157 701 128 93 103 116
157 700 131 95 103 113
157 701 131 91 101 113
156 702 128 99 107 120
156 703 129 87 98 112
157 702 128 107 113 124
157 702 129 108 113 122
157 703 129 105 110 120
157 703 130 103 108 117
157 703 131 93 101 112
158 700 128 85 95 107
158 700 129 97 102 112
158 701 128 92 100 111
158 701 129 99 104 113
158 700 130 95 102 112
158 700 131 93 101 112
158 701 130 96 102 112
158 701 131 91 100 112
158 702 129 105 109 117
158 702 130 100 105 115
158 702 131 92 101 112
158 703 130 102 107 115
158 703 131 94 102 113
156 700 133 70 88 108
156 701 133 67 87 107
157 700 132 90 100 112
157 700 133 76 91 109
157 701 132 87 98 111
157 701 133 75 91 109
156 700 134 71 89 109
156 700 135 67 87 108
156 701 134 62 84 106
156 701 135 74 90 107
156 702 133 66 85 105
156 703 133 71 87 106
157 702 132 87 97 110
157 702 133 79 93 108
157 703 132 85 95 108
157 703 133 80 93 108
156 702 134 57 80 104
156 703 134 57 79 103
155 696 136 62 80 108
155 696 137 61 80 113
155 697 136 62 81 109
155 697 137 59 80 115
155 696 138 58 75 118
155 696 139 59 81 124
155 697 138 64 81 120
155 697 139 84 101 134
155 698 136 63 84 112
155 698 137 58 81 116
155 699 136 59 82 112
155 699 137 53 77 116
155 698 138 68 87 123
155 698 139 84 102 133
155 699 138 66 86 124
155 699 139 74 94 130
153 696 142 48 72 117
153 696 143 53 76 119
153 697 143 46 69 116
153 698 143 55 78 120
153 699 143 68 90 126
154 696 140 66 89 130
154 696 141 59 83 126
154 697 140 71 94 131
154 697 141 63 87 127
155 696 140 66 88 130
155 697 140 88 107 138
154 696 142 51 75 119
154 697 142 53 76 120
154 698 140 88 106 139
154 698 141 71 92 132
154 699 140 66 89 131
154 699 141 59 82 127
155 698 140 94 112 142
155 699 140 72 94 131
154 698 142 56 81 125
154 699 142 53 80 124
154 701 137 56 76 115
155 700 136 55 78 110
155 700 137 52 74 116
155 701 136 52 77 108
155 701 137 52 74 114
154 700 138 63 84 125
154 700 139 65 89 130
154 701 138 65 85 122
154 701 139 65 89 125
155 700 138 61 82 124
155 700 139 66 88 129
154 702 137 60 80 114
154 703 136 49 75 106
154 703 137 55 77 110
155 702 136 51 76 106
155 702 137 51 74 111
155 703 136 51 76 104
154 702 138 83 98 125
154 702 139 97 111 133
154 703 138 78 94 121
154 703 139 111 121 138
153 700 143 43 81 118
153 701 143 52 84 121
153 702 143 79 100 127
153 703 143 91 107 127
154 700 140 60 85 130
154 700 141 46 76 125
154 701 140 55 84 126
154 701 141 49 81 127
154 700 142 32 71 119
154 701 142 37 75 122
154 702 140 82 104 129
154 702 141 63 91 123
154 703 140 125 132 145
154 703 141 115 125 138
154 702 142 61 88 121
154 703 142 100 113 130
156 696 136 67 82 106
156 697 136 66 85 106
