ply
format ascii 1.0
comment Version 2, Copyright 2017, 8i Labs, Inc.
comment frame_to_world_scale 0.179523
comment frame_to_world_translation -45.2095 7.18301 -54.3561
comment width 1023
element vertex 111
property float x
property float y
property float z
property uchar red
property uchar green
property uchar blue
end_header
151 544 192 173 168 170
151 545 192 145 147 153
152 544 192 163 162 168
152 544 193 128 128 142
152 545 192 134 138 147
152 545 193 116 118 132
153 545 193 133 130 141
152 544 194 87 78 111
153 544 194 77 60 107
153 545 194 103 87 120
152 546 192 168 163 164
152 546 193 178 170 170
152 547 192 212 196 185
153 546 193 171 157 161
153 547 193 199 180 174
153 546 194 139 123 137
154 544 195 66 66 125
154 545 194 84 66 117
154 545 195 72 60 119
155 544 195 68 77 138
155 545 195 63 64 129
154 547 193 171 143 146
154 546 194 97 67 108
154 547 194 131 93 116
155 546 195 65 57 127
155 547 194 87 41 97
155 547 195 78 42 111
154 544 196 53 74 135
155 544 196 51 76 141
155 544 197 39 67 142
155 545 196 52 73 144
152 548 192 225 203 189
153 548 192 228 207 193
153 548 193 217 198 187
153 549 192 231 211 199
153 550 192 234 214 203
154 548 193 202 182 176
154 549 192 231 212 200
154 549 193 224 205 195
155 548 193 162 133 139
155 549 193 176 151 153
154 548 194 158 126 133
155 548 194 111 65 102
155 549 194 121 78 105
154 550 192 234 215 203
154 551 192 235 216 204
155 550 193 215 197 189
155 551 192 230 212 202
155 551 193 205 188 181
156 547 195 60 56 131
157 547 195 55 65 139
158 547 195 55 50 129
159 547 195 51 51 128
156 544 196 47 76 147
156 544 197 48 78 153
156 545 196 58 84 157
157 544 197 75 99 168
157 545 197 66 93 167
156 544 198 58 86 153
157 544 198 78 102 165
156 546 196 55 76 151
157 546 196 56 80 157
157 547 196 52 65 141
158 545 197 65 91 166
159 545 197 70 86 158
158 544 198 78 100 158
159 544 198 68 83 132
159 544 199 62 73 106
159 545 198 76 87 150
158 546 196 52 78 158
158 547 196 52 62 141
159 546 196 61 78 156
159 546 197 75 85 155
159 547 196 54 66 143
156 549 193 116 75 100
156 548 194 77 38 105
156 548 195 65 49 120
156 549 194 86 42 96
157 548 195 69 61 128
157 549 194 74 52 118
156 550 193 122 94 113
156 551 193 168 152 156
157 550 193 67 38 98
157 551 193 96 76 115
157 550 194 69 38 104
158 548 195 66 45 118
158 549 194 77 59 124
159 548 195 61 42 113
159 549 194 80 59 125
158 550 193 56 53 119
158 551 193 52 60 117
159 550 193 67 95 140
159 551 193 60 103 141
158 550 194 65 56 125
159 550 194 67 78 135
154 552 192 232 214 205
155 552 192 225 210 203
155 553 192 199 190 188
156 552 192 199 190 191
156 553 192 166 167 174
157 552 192 146 152 168
157 552 193 134 134 154
157 553 192 164 174 189
158 552 192 91 118 149
158 552 193 68 93 131
158 553 192 130 155 181
159 552 192 84 129 162
159 552 193 68 119 153
159 553 192 86 133 168
158 554 192 83 129 166
159 554 192 87 132 169
