ply
format ascii 1.0
comment Version 2, Copyright 2017, 8i Labs, Inc.
comment frame_to_world_scale 0.179523
comment frame_to_world_translation -45.2095 7.18301 -54.3561
comment width 1023
element vertex 98
property float x
property float y
property float z
property uchar red
property uchar green
property uchar blue
end_header
182 736 63 200 196 206
182 737 63 196 192 201
183 736 62 192 188 201
183 736 63 196 192 203
183 737 63 197 192 202
183 738 63 197 191 202
185 736 61 199 195 210
184 736 62 193 190 204
184 737 62 197 192 205
184 737 63 196 191 204
185 736 62 194 191 207
185 737 62 194 191 206
184 738 63 198 193 205
184 739 63 198 192 204
185 738 62 195 192 207
185 738 63 196 192 206
185 739 63 194 190 205
186 736 61 190 189 208
186 737 61 189 187 205
187 736 60 168 176 204
187 736 61 175 180 204
187 737 61 178 182 205
186 737 62 192 189 206
187 738 61 185 186 207
187 739 61 188 189 208
186 738 62 192 189 207
186 739 62 195 192 209
186 739 63 194 191 207
187 739 62 195 192 209
185 740 63 192 189 203
185 741 63 192 190 202
186 740 62 191 188 206
186 740 63 190 188 204
186 741 63 187 186 201
187 740 62 192 190 207
187 741 62 182 183 201
187 741 63 184 185 201
186 742 63 191 189 202
186 743 63 195 193 203
187 742 63 186 187 202
187 743 63 194 192 205
190 736 59 152 174 212
191 736 59 152 175 212
188 736 60 147 164 201
188 737 60 148 165 202
188 737 61 163 174 202
189 736 60 149 168 209
189 737 60 140 161 202
188 738 61 167 175 202
188 739 61 178 184 206
189 738 60 143 161 198
189 738 61 154 168 199
189 739 61 162 173 201
188 739 62 198 195 212
190 736 60 157 178 213
190 737 60 146 169 203
191 737 60 158 178 210
190 738 60 161 177 206
190 739 60 191 199 218
190 739 61 182 192 214
191 738 60 175 189 214
191 739 60 194 202 220
191 739 61 195 203 220
188 740 61 178 184 206
189 740 61 173 186 207
189 741 61 163 182 207
188 740 62 193 194 211
188 741 62 188 192 209
189 741 62 178 190 210
188 742 62 178 188 208
188 742 63 184 189 207
188 743 63 179 188 209
189 742 62 136 173 208
189 743 62 124 169 209
189 743 63 150 180 212
190 740 61 185 197 218
190 741 61 173 190 215
191 740 61 190 200 219
191 741 61 186 198 218
190 742 61 166 185 213
191 742 61 182 196 217
190 742 62 148 178 211
190 743 62 141 176 211
191 742 62 174 190 213
191 743 62 166 185 211
187 744 63 197 194 207
188 744 63 181 189 209
189 744 63 142 176 210
189 745 63 144 176 210
189 746 63 141 174 208
190 744 62 143 177 211
190 744 63 128 172 211
190 745 63 135 174 212
191 744 62 161 184 212
191 745 63 158 184 214
190 746 63 126 167 205
191 746 63 149 180 212
191 747 63 141 174 209
