ply
format ascii 1.0
comment Version 2, Copyright 2017, 8i Labs, Inc.
comment frame_to_world_scale 0.179523
comment frame_to_world_translation -45.2095 7.18301 -54.3561
comment width 1023
element vertex 86
property float x
property float y
property float z
property uchar red
property uchar green
property uchar blue
end_header
247 350 64 188 184 191
247 351 64 146 154 173
255 343 64 123 138 182
250 347 64 168 169 182
251 347 64 157 165 185
251 347 65 176 183 199
249 349 64 199 189 190
248 350 64 193 187 192
248 350 65 189 189 199
248 351 64 176 180 195
248 351 65 151 165 187
249 350 64 199 190 191
249 350 65 193 191 199
248 351 66 118 142 178
249 350 66 174 180 198
249 351 66 123 146 189
250 348 64 193 187 193
250 348 65 199 192 196
250 349 64 199 190 190
250 349 65 197 191 196
251 348 65 191 191 201
250 349 66 186 187 199
251 348 66 176 179 194
251 349 66 170 174 193
250 350 65 196 193 200
250 350 66 174 179 197
250 350 67 127 144 184
250 351 67 97 116 190
251 350 66 164 169 194
251 350 67 148 156 188
250 351 68 134 144 185
251 350 68 179 180 204
251 351 68 140 150 186
253 345 64 146 157 182
252 346 64 136 149 181
252 347 64 131 146 181
252 347 65 156 171 195
253 346 64 142 155 185
253 346 65 111 130 176
253 347 65 133 150 182
253 347 66 130 146 172
254 344 64 120 137 171
254 345 64 137 151 180
254 345 65 143 153 186
255 344 64 110 129 174
255 344 65 133 147 182
255 345 65 139 147 184
255 345 66 103 109 172
254 346 64 131 148 185
254 346 65 102 112 164
255 346 65 111 108 167
254 346 66 96 104 156
254 347 66 127 137 168
254 347 67 176 173 191
255 346 66 89 93 162
255 346 67 139 145 188
255 347 67 187 187 203
255 347 68 211 203 210
252 348 65 171 180 198
252 348 66 154 165 187
252 348 67 149 155 181
252 349 67 153 156 183
253 348 66 149 161 185
253 348 67 165 169 191
253 349 67 176 178 195
252 350 67 167 170 196
254 348 67 188 183 199
253 349 68 197 192 204
252 350 68 178 180 200
252 351 68 159 164 193
252 351 69 151 156 185
253 350 68 183 181 197
253 350 69 179 178 193
253 351 69 176 174 190
254 348 68 212 201 208
254 349 68 177 171 191
254 349 69 187 179 192
255 348 68 183 178 193
255 348 69 184 178 189
255 349 69 207 195 201
255 349 70 205 192 194
254 350 69 193 185 192
254 351 69 186 180 189
254 351 70 202 191 193
255 350 70 203 190 192
255 351 70 199 186 187
