ply
format ascii 1.0
comment Version 2, Copyright 2017, 8i Labs, Inc.
comment frame_to_world_scale 0.179523
comment frame_to_world_translation -45.2095 7.18301 -54.3561
comment width 1023
element vertex 246
property float x
property float y
property float z
property uchar red
property uchar green
property uchar blue
end_header
224 288 27 131 149 170
224 289 27 125 146 169
225 288 27 121 145 171
225 289 27 117 146 176
224 290 27 114 141 169
224 291 27 125 142 168
225 290 27 126 153 183
225 291 27 126 147 172
226 288 27 110 142 173
226 289 27 123 151 183
227 288 27 117 149 182
227 289 27 120 154 187
226 290 27 127 155 187
226 291 27 122 150 178
227 290 27 120 155 189
227 291 27 121 152 184
224 292 27 142 150 163
224 293 27 138 132 137
225 292 27 122 121 142
225 293 27 132 88 113
224 294 27 143 118 122
224 295 27 175 151 148
225 294 27 135 109 127
225 295 27 159 102 96
226 292 27 112 124 153
226 293 27 119 113 146
227 292 27 111 144 178
226 294 27 128 131 156
224 295 28 185 167 159
225 295 28 163 111 106
226 293 28 118 135 167
227 292 28 108 139 177
227 293 28 116 134 167
226 294 28 128 126 151
226 295 28 150 75 84
227 294 28 143 51 48
227 295 28 147 67 74
228 288 27 114 149 185
228 289 27 110 150 187
229 288 27 100 146 186
229 289 27 93 139 183
228 290 27 110 150 189
228 291 27 117 148 183
229 290 27 98 144 187
230 288 27 96 147 190
230 289 27 93 143 188
228 291 28 106 143 183
229 290 28 92 142 186
229 291 28 102 141 180
230 288 28 96 147 192
230 289 28 92 145 190
231 288 28 93 147 193
231 289 28 91 144 190
231 289 29 84 139 187
230 290 28 91 144 189
230 291 28 95 136 175
230 291 29 97 140 179
231 290 28 91 141 185
231 290 29 89 139 182
231 291 28 95 143 184
231 291 29 95 140 180
231 291 30 90 136 177
228 292 28 108 136 171
228 293 28 119 116 133
229 292 28 107 127 158
229 293 28 107 121 144
229 293 29 102 108 133
228 294 28 130 59 66
228 294 29 106 107 130
228 295 28 136 51 63
228 295 29 129 62 87
229 294 29 118 69 106
229 295 29 121 84 105
230 292 28 93 123 152
230 292 29 95 134 171
230 293 29 86 114 149
231 292 29 89 131 170
231 293 29 88 121 160
231 292 30 86 132 172
231 293 30 90 124 160
230 294 29 101 112 138
230 295 29 99 80 85
230 295 30 98 95 104
231 294 30 101 135 166
231 295 30 96 111 128
224 296 28 187 184 186
224 297 28 175 181 195
225 296 28 173 163 162
225 297 28 173 169 179
224 298 28 141 161 189
224 299 29 108 143 186
225 298 28 178 184 198
225 298 29 182 187 200
225 299 29 149 167 190
226 296 28 148 125 135
226 297 28 165 140 146
227 296 28 146 94 105
227 296 29 160 114 118
227 297 28 168 133 132
227 297 29 186 163 162
226 298 29 191 187 194
226 299 29 178 184 198
227 298 29 189 182 186
227 299 29 162 162 173
224 300 29 97 140 189
224 301 29 97 144 191
225 300 29 124 152 185
225 301 29 100 141 189
224 302 29 99 146 193
224 302 30 100 147 194
224 303 30 97 144 193
225 302 30 101 144 195
225 303 30 104 146 195
226 300 29 151 164 184
226 301 29 124 152 187
227 300 29 149 158 174
227 301 29 153 170 193
226 301 30 107 143 185
227 301 30 150 165 189
226 302 30 109 144 189
226 303 30 112 146 191
227 302 30 139 157 186
227 303 30 140 158 191
228 296 28 145 67 84
228 296 29 156 105 108
228 297 29 188 166 159
229 296 29 128 80 75
229 297 29 145 117 116
228 298 29 179 174 176
228 299 29 160 155 162
229 298 29 151 126 127
228 299 30 155 149 154
229 298 30 152 128 129
229 299 30 159 153 161
230 296 29 119 92 93
230 296 30 108 74 77
230 297 30 131 102 113
231 296 30 97 73 84
231 296 31 102 85 101
231 297 30 117 79 101
231 297 31 102 42 77
230 298 30 145 110 115
230 299 30 157 134 137
231 298 30 139 95 102
231 298 31 130 80 92
231 299 31 148 126 128
228 300 30 152 157 176
228 301 30 176 177 189
229 300 30 162 161 167
229 301 30 178 175 180
228 302 30 180 181 193
228 303 30 170 171 185
229 302 30 182 180 186
229 302 31 164 165 176
229 303 30 174 173 184
229 303 31 161 163 176
230 300 30 170 160 161
230 300 31 165 155 156
230 301 31 178 173 174
231 300 31 154 143 146
231 301 31 169 162 165
230 302 31 164 164 173
230 303 31 151 155 169
231 302 31 172 168 172
231 303 31 168 166 173
232 288 28 92 145 192
232 288 29 87 142 189
232 289 29 83 139 186
232 288 30 87 140 186
232 289 30 83 136 180
233 288 30 89 140 184
233 288 31 85 132 171
233 289 30 83 134 178
233 289 31 81 128 170
232 290 29 88 139 183
232 290 30 88 138 181
232 290 31 85 135 178
232 291 30 90 138 180
232 291 31 88 134 173
233 290 31 83 127 164
233 291 31 87 127 161
234 288 31 80 123 160
234 289 31 78 119 157
234 290 31 80 122 158
232 292 30 87 133 175
232 292 31 83 120 153
232 293 30 83 114 146
232 293 31 88 114 145
233 292 31 88 124 156
233 293 31 91 117 146
232 294 31 100 139 173
232 295 31 94 120 143
232 296 31 93 81 97
232 297 31 106 39 63
232 298 31 122 49 72
232 299 31 139 112 117
232 300 31 149 135 140
224 304 30 96 142 193
224 305 30 111 146 195
225 304 30 100 145 190
225 305 30 107 143 191
224 306 30 159 174 200
224 307 30 162 173 194
225 306 30 154 169 197
225 306 31 160 172 194
225 307 31 176 183 198
226 304 30 118 149 188
226 305 30 113 145 188
227 304 30 137 158 190
227 305 30 130 153 183
227 305 31 113 144 187
226 306 30 121 147 185
226 306 31 132 153 187
226 307 31 169 177 198
227 306 31 117 143 185
227 307 31 144 158 188
224 308 31 151 167 200
224 309 31 144 166 198
225 308 31 154 168 194
225 309 31 148 168 195
224 310 31 150 163 194
224 311 31 169 173 197
225 310 31 144 162 195
225 311 31 148 160 196
226 308 31 163 173 195
226 309 31 146 164 191
227 308 31 164 175 195
227 309 31 145 162 190
226 310 31 148 166 196
228 304 30 163 167 181
228 304 31 162 167 180
228 305 30 156 164 181
228 305 31 131 153 186
229 304 31 167 171 184
229 305 31 155 169 189
228 306 31 117 142 185
228 307 31 122 144 182
229 306 31 127 150 184
229 307 31 118 145 184
230 304 31 163 167 177
230 305 31 173 176 186
231 304 31 169 167 175
231 305 31 176 175 183
230 306 31 146 161 183
230 307 31 124 148 179
228 308 31 151 167 190
