ply
format ascii 1.0
comment Version 2, Copyright 2017, 8i Labs, Inc.
comment frame_to_world_scale 0.179523
comment frame_to_world_translation -45.2095 7.18301 -54.3561
comment width 1023
element vertex 2075
property float x
property float y
property float z
property uchar red
property uchar green
property uchar blue
end_header
103 723 95 137 146 162
103 724 90 83 112 164
103 724 91 117 134 172
103 725 91 84 104 162
103 724 92 136 151 172
103 724 93 154 162 175
103 725 92 121 139 169
103 725 93 150 160 176
103 724 94 150 157 171
103 724 95 136 146 163
103 725 94 155 164 178
103 725 95 138 150 167
103 726 92 70 97 159
103 726 93 73 99 161
103 726 94 73 106 158
103 726 95 88 119 159
103 727 94 61 95 160
103 727 95 53 96 156
103 728 95 64 97 157
103 729 95 30 48 128
105 720 83 139 159 194
106 720 82 139 153 193
106 720 83 134 150 193
106 721 83 114 132 191
107 720 82 134 146 191
107 721 82 124 135 193
107 721 83 113 129 192
107 722 83 101 122 184
104 720 85 95 126 175
104 721 85 94 123 178
105 720 84 123 146 188
105 720 85 104 135 181
105 721 84 113 134 187
105 721 85 113 130 188
104 720 86 81 106 164
104 720 87 102 119 165
104 721 86 102 124 176
104 721 87 109 127 170
105 722 85 117 130 191
105 723 85 102 119 181
104 722 86 122 140 187
104 722 87 120 138 180
104 723 87 111 133 176
105 722 86 116 133 186
105 723 86 95 115 175
105 723 87 95 117 171
106 721 84 110 129 191
106 722 84 104 123 183
106 722 85 105 122 185
106 723 84 92 115 174
106 723 85 95 115 177
107 722 84 98 119 181
107 723 84 101 126 178
104 724 87 106 127 175
105 724 86 108 120 178
105 724 87 117 130 180
105 725 87 87 108 166
105 726 87 80 110 165
105 727 87 110 137 181
106 724 85 83 108 171
107 724 84 106 132 183
107 724 85 94 121 179
107 725 84 104 128 182
107 725 85 98 124 179
106 724 86 97 115 175
106 725 86 77 101 164
106 725 87 78 108 164
107 726 85 121 144 188
106 726 86 100 130 178
106 726 87 106 136 181
106 727 86 109 139 184
106 727 87 106 135 183
107 726 86 105 134 181
107 727 86 111 136 183
107 727 87 106 132 181
109 720 81 160 159 207
108 720 82 138 145 196
108 721 82 123 133 192
108 721 83 116 130 191
109 720 82 139 145 194
109 721 82 131 140 194
108 722 83 114 133 186
108 723 83 122 141 186
109 722 82 129 139 204
109 722 83 125 142 186
109 723 83 147 160 196
110 720 81 153 156 200
111 720 81 145 151 204
111 721 81 148 151 205
110 720 82 141 147 192
110 721 82 148 154 203
111 721 82 159 162 211
110 722 82 162 169 208
110 722 83 155 165 207
110 723 83 179 187 205
111 722 82 198 198 221
111 723 82 197 198 214
111 723 83 175 183 200
108 723 84 117 137 185
109 724 83 160 171 195
110 724 83 186 191 208
110 725 83 176 182 201
111 724 83 200 200 217
111 725 83 187 189 211
111 726 83 167 172 194
108 724 84 127 145 191
108 725 84 126 145 187
109 724 84 153 167 196
109 725 84 157 169 194
108 726 84 150 165 197
108 726 85 136 155 192
108 727 85 125 145 185
109 726 84 164 172 196
109 727 84 156 164 192
109 727 85 144 158 189
110 726 84 172 178 200
110 727 84 163 169 196
111 726 84 178 179 205
111 727 84 193 190 214
104 721 88 97 116 165
104 722 88 106 125 171
104 723 88 120 140 178
104 723 89 101 124 168
104 720 94 112 126 146
104 720 95 145 147 159
104 721 95 147 149 160
104 724 88 91 119 167
104 724 89 75 109 161
104 725 88 103 124 176
104 725 89 92 117 173
105 725 88 68 94 160
104 724 90 54 98 158
104 725 90 67 101 167
104 725 91 65 91 159
104 726 88 48 77 150
104 726 89 58 84 153
104 727 89 9 55 138
105 726 88 40 79 150
105 727 88 89 120 171
105 727 89 51 84 152
104 726 90 87 100 162
104 726 91 86 107 165
104 727 90 28 52 140
104 727 91 47 70 149
104 726 92 76 100 163
104 727 92 70 91 157
104 727 93 76 95 161
104 727 94 76 101 163
106 728 87 102 129 181
106 729 87 125 143 190
107 728 86 103 127 179
107 728 87 109 130 183
107 729 86 105 127 182
107 729 87 116 134 186
107 730 87 112 133 180
108 728 85 117 139 185
109 728 85 137 151 187
109 729 85 120 137 181
108 728 86 108 132 182
108 729 86 96 122 176
109 729 86 106 127 174
108 730 86 104 127 175
108 730 87 117 137 179
108 731 87 146 161 193
109 730 86 125 144 181
109 731 86 161 173 197
109 731 87 163 174 198
110 728 84 163 168 193
110 728 85 145 155 188
110 729 85 144 154 186
111 728 84 178 180 198
111 729 84 178 183 197
111 729 85 174 179 195
111 730 85 181 183 195
110 730 86 153 165 187
110 731 86 181 187 204
111 730 86 175 181 195
111 731 86 195 195 206
108 732 87 152 164 193
109 732 87 160 170 192
109 733 87 152 162 184
110 732 86 182 186 200
110 732 87 173 179 196
110 733 87 160 168 191
111 732 86 199 198 207
111 732 87 189 190 201
111 733 86 187 189 202
111 733 87 180 185 200
110 734 87 138 149 182
111 734 87 159 168 196
111 735 87 121 132 185
105 728 88 100 129 181
105 728 89 89 119 174
105 729 89 100 128 179
104 728 90 45 84 153
104 728 91 17 41 139
104 729 91 35 80 148
105 728 90 81 112 168
105 729 90 83 115 168
105 729 91 80 111 166
105 730 89 87 119 174
104 730 91 62 94 158
105 730 90 79 112 169
105 730 91 87 115 172
105 731 90 92 122 176
105 731 91 92 123 174
106 728 88 102 131 183
106 729 88 126 146 189
106 730 88 117 139 185
106 730 89 96 125 178
106 731 89 112 138 185
107 730 88 115 136 180
107 731 88 127 146 187
107 731 89 116 141 186
106 731 90 108 134 183
104 728 92 20 46 138
104 728 93 42 61 140
104 729 92 7 46 136
104 729 93 17 40 131
104 728 94 57 79 148
104 728 95 64 90 154
104 729 94 28 42 132
104 729 95 35 50 134
104 730 92 47 83 152
104 730 93 21 62 138
104 731 92 76 107 167
104 731 93 66 96 160
105 731 92 79 112 170
104 730 94 14 47 128
104 730 95 16 46 123
104 731 94 33 69 143
104 731 95 7 45 128
105 732 91 140 161 192
105 733 91 156 169 188
106 732 89 114 139 185
107 732 88 125 142 184
107 732 89 116 137 183
107 733 89 128 143 182
106 732 90 120 143 186
106 732 91 143 162 192
106 733 90 122 140 176
106 733 91 142 159 182
107 733 90 119 136 174
107 734 89 142 155 182
106 734 90 151 161 180
106 734 91 163 171 186
106 735 91 183 184 195
107 734 90 147 158 180
107 735 90 196 194 201
107 735 91 200 195 201
104 732 93 66 102 165
105 732 92 118 144 180
105 732 93 77 115 166
105 733 92 152 168 187
105 733 93 119 145 174
104 732 94 68 97 160
104 732 95 32 66 137
104 733 94 58 98 158
104 733 95 56 85 150
105 733 94 91 124 163
105 734 92 169 177 192
105 734 93 169 179 195
105 735 92 172 180 196
105 735 93 177 184 199
104 734 95 52 96 155
104 735 95 48 102 162
105 734 94 137 157 181
105 734 95 97 131 164
105 735 94 173 184 201
105 735 95 113 146 183
106 735 92 171 177 193
106 735 93 156 168 188
108 732 88 141 154 188
108 733 88 138 150 183
109 733 88 148 158 183
108 734 88 149 159 184
108 734 89 155 164 185
108 735 89 177 179 192
109 734 88 144 154 180
109 735 88 148 155 182
109 735 89 163 168 186
108 735 90 199 195 200
110 734 88 130 141 178
110 735 88 130 138 181
111 735 88 116 125 180
113 705 79 104 117 156
113 706 79 104 119 148
113 707 79 130 138 156
115 705 77 117 130 155
114 704 79 118 129 158
114 705 79 110 121 152
115 704 78 89 107 144
115 704 79 108 122 151
115 705 78 105 119 148
115 706 77 119 130 153
115 707 77 120 127 151
114 706 78 131 139 156
114 706 79 120 129 152
114 707 78 144 147 161
114 707 79 141 144 160
115 706 78 127 137 156
115 707 78 130 137 155
112 708 79 136 141 156
112 709 79 138 141 150
113 708 79 142 147 159
113 709 79 144 146 155
112 710 79 135 137 147
112 711 79 130 133 150
113 710 79 135 139 153
113 711 79 122 128 147
115 708 77 126 129 152
115 709 77 112 115 142
114 708 78 141 144 158
114 709 78 136 141 155
115 708 78 128 135 155
115 709 78 122 129 153
115 710 77 85 91 133
114 710 78 123 132 152
114 711 78 119 131 161
115 710 78 110 118 148
115 711 78 89 101 143
119 704 75 58 59 123
119 705 75 83 81 123
119 706 75 94 98 130
119 707 75 129 134 163
116 704 77 84 104 139
116 705 77 113 125 150
117 704 77 100 117 147
117 705 76 123 131 149
117 705 77 122 131 151
116 704 78 83 102 140
116 706 77 123 129 149
116 707 77 124 125 144
117 706 76 118 118 136
117 706 77 128 130 145
117 707 76 98 87 124
117 707 77 113 109 134
118 704 76 101 117 144
118 705 76 99 104 133
119 704 76 86 99 137
119 705 76 69 65 119
118 706 76 77 73 112
118 707 76 71 56 110
119 706 76 85 85 116
119 707 76 106 111 136
119 708 75 136 149 181
119 709 75 119 128 161
116 708 77 118 116 142
116 709 77 94 90 131
117 708 76 87 85 117
117 708 77 94 85 123
117 709 76 96 94 127
117 709 77 95 94 129
116 710 77 97 93 144
116 711 77 121 122 171
117 710 77 110 116 148
117 711 77 120 129 168
118 708 76 98 95 133
118 709 76 136 134 169
119 708 76 125 132 157
119 709 76 129 136 167
118 710 76 136 141 189
118 710 77 116 125 158
118 711 76 110 123 164
118 711 77 110 124 163
119 710 76 126 132 191
119 711 76 129 138 204
112 712 79 121 128 156
112 713 79 114 123 155
113 712 79 116 124 148
113 713 78 109 118 159
113 713 79 110 119 152
112 714 79 112 120 151
112 715 79 109 117 150
113 714 79 120 122 189
113 715 79 135 136 201
114 712 78 100 118 157
114 713 78 107 119 174
115 712 78 92 108 146
115 713 78 114 125 159
114 714 78 141 143 203
114 715 78 141 147 207
114 715 79 143 149 211
115 714 78 118 128 159
115 715 78 131 141 173
112 716 79 123 128 160
112 717 79 147 152 199
113 716 79 138 142 180
113 717 79 143 149 198
114 716 78 137 144 204
114 716 79 142 146 210
114 717 79 135 143 195
115 716 78 176 181 217
115 717 78 173 176 210
115 717 79 152 160 196
114 718 79 142 154 190
115 718 79 191 193 213
116 712 77 139 144 195
116 713 77 168 169 210
117 712 77 126 135 183
117 713 77 172 173 210
116 713 78 147 155 196
117 714 77 198 196 220
117 715 77 185 184 213
116 714 78 187 186 208
116 715 78 171 174 190
117 715 78 182 183 204
118 712 77 119 133 167
118 713 77 142 152 175
119 712 76 145 157 212
119 712 77 169 176 219
119 713 76 136 151 210
119 713 77 139 149 188
118 714 77 205 203 219
118 715 77 196 197 213
119 714 77 149 157 202
119 715 77 190 193 219
116 716 78 180 181 201
116 717 78 166 172 201
116 717 79 152 161 188
117 716 78 176 176 200
117 717 78 169 170 203
116 718 79 211 208 222
116 719 79 216 210 220
117 718 79 184 184 206
117 719 79 219 209 222
118 716 77 202 202 217
119 716 77 207 204 217
118 716 78 151 153 178
118 717 78 163 155 206
119 716 78 166 165 188
119 717 78 192 187 210
118 718 78 146 136 198
118 718 79 158 159 194
118 719 79 199 190 219
119 718 78 169 157 204
119 718 79 156 147 193
119 719 79 163 157 197
120 704 75 59 59 128
120 705 75 93 92 152
121 704 75 75 79 156
121 705 75 125 128 185
120 706 75 135 138 186
120 707 75 138 148 195
121 706 75 133 146 196
121 707 75 134 151 204
122 704 74 101 109 158
122 705 74 109 119 160
122 705 75 105 116 154
123 704 74 120 128 181
123 705 74 114 126 175
122 706 75 111 128 176
122 707 75 134 154 201
123 706 74 108 124 167
123 707 74 130 141 190
123 707 75 134 145 201
120 708 75 126 141 197
120 709 75 131 146 208
121 708 75 134 146 210
121 709 75 116 135 209
120 710 75 121 132 177
121 710 75 128 146 213
122 708 75 135 152 209
122 709 75 99 125 207
123 708 75 122 129 200
123 709 75 95 114 203
122 710 75 93 123 206
123 710 75 116 140 208
123 711 75 153 169 213
120 709 76 127 136 175
120 710 76 119 130 178
120 711 76 121 135 192
121 710 76 121 134 180
121 711 76 122 137 195
122 711 76 114 137 203
123 711 76 135 157 209
124 704 74 137 144 195
124 705 74 163 166 204
125 704 74 177 180 212
125 705 74 180 181 204
124 706 74 147 154 187
124 707 74 137 146 180
125 706 74 180 180 201
125 707 74 182 181 199
126 704 74 175 181 204
126 705 74 172 176 196
127 704 74 142 158 190
127 705 74 181 183 201
126 706 74 165 165 186
126 707 74 182 179 196
127 706 74 196 187 201
127 707 74 187 179 194
124 708 74 143 145 186
124 708 75 125 127 191
124 709 75 107 107 195
125 708 74 179 175 199
125 709 75 169 159 198
124 710 75 117 127 192
124 711 75 177 180 206
125 710 75 178 172 201
125 711 75 200 195 209
126 708 74 200 191 206
126 709 74 205 196 206
126 709 75 207 196 206
127 708 74 176 173 189
127 709 74 180 178 195
127 709 75 191 187 203
126 710 75 208 199 205
126 711 75 211 202 209
127 710 75 195 191 208
127 711 75 204 198 212
120 712 76 127 143 207
120 713 76 128 141 212
120 713 77 120 129 210
121 712 76 118 136 206
121 713 76 128 140 211
120 714 77 112 120 204
120 715 77 145 152 205
121 714 77 124 136 201
121 715 77 165 170 209
122 712 76 129 146 212
122 713 76 140 150 205
123 712 76 137 152 206
123 713 76 127 135 198
122 714 76 185 191 219
122 714 77 185 189 217
122 715 77 209 210 223
123 714 76 151 161 212
123 715 76 154 168 210
123 715 77 188 193 217
120 716 77 206 203 218
121 716 77 210 205 218
121 717 77 218 206 215
120 717 78 218 210 218
121 717 78 219 208 214
120 718 78 215 205 221
120 718 79 169 169 190
120 719 79 172 169 196
121 718 78 206 199 210
121 719 79 186 184 203
122 716 77 204 199 209
122 717 77 216 204 211
123 716 77 180 183 202
123 717 77 205 201 211
122 717 78 216 203 209
123 717 78 216 205 212
122 718 78 217 205 214
122 719 79 201 192 208
123 718 78 189 184 198
123 719 78 180 173 194
123 719 79 179 173 193
125 712 75 212 204 214
126 712 75 208 199 206
127 712 75 204 197 207
127 713 75 202 197 209
124 712 76 209 204 220
124 713 76 183 178 211
125 712 76 213 204 212
125 713 76 215 204 214
124 714 76 129 137 196
124 715 76 115 122 203
125 714 76 204 198 215
125 715 76 178 171 210
126 713 76 213 203 209
127 713 76 199 195 208
126 714 76 215 204 211
126 715 76 209 198 212
127 714 76 191 189 205
127 715 76 174 172 195
124 716 77 129 141 208
124 717 77 139 150 190
125 716 76 140 139 194
125 716 77 122 124 190
125 717 77 131 135 190
124 718 77 161 160 206
125 718 77 151 148 189
124 718 78 153 150 187
124 719 78 163 158 175
125 719 78 168 164 177
126 716 76 170 164 200
126 717 77 165 162 199
127 716 76 150 147 191
127 717 76 145 143 196
127 717 77 160 158 202
126 718 77 171 170 191
126 719 77 182 177 204
127 718 77 150 152 182
127 719 77 139 147 200
126 719 78 171 166 180
112 704 80 153 159 183
112 705 80 146 153 176
113 704 80 130 138 167
113 705 80 123 131 164
112 706 80 144 151 169
112 707 80 142 147 164
113 706 80 117 129 155
114 704 80 129 139 169
112 708 80 148 151 163
112 709 80 142 145 154
112 717 80 159 165 213
112 718 80 148 154 206
112 719 80 136 144 197
112 719 81 136 145 191
113 718 80 134 144 199
113 719 80 149 155 198
114 718 80 152 163 192
114 719 80 210 204 221
115 718 80 172 178 197
115 719 80 205 199 211
116 719 80 175 175 194
117 719 80 221 210 220
118 720 79 163 165 189
119 720 79 188 184 211
120 720 79 173 173 201
121 720 79 172 170 195
122 720 79 179 174 191
122 721 79 189 185 196
123 720 78 173 168 185
123 720 79 175 171 189
123 721 79 180 175 192
123 722 79 170 166 187
124 720 78 184 176 192
124 721 78 181 177 190
124 721 79 188 182 200
125 720 78 177 171 187
125 721 78 162 162 183
125 721 79 173 171 188
124 722 79 171 168 187
124 723 79 155 155 182
125 722 78 150 153 184
125 722 79 164 164 192
125 723 79 165 170 199
126 720 77 160 155 177
127 720 77 143 146 193
127 721 77 126 134 174
126 720 78 159 155 179
126 721 78 152 153 192
127 721 78 128 137 182
126 722 78 141 146 183
126 723 78 143 152 182
126 723 79 176 183 216
127 722 78 108 127 194
127 723 78 119 133 175
124 724 79 139 146 181
125 724 79 145 156 185
125 725 79 132 143 190
126 724 79 122 145 196
126 725 79 108 121 178
127 724 78 101 117 172
127 724 79 61 95 202
127 725 78 92 103 170
127 725 79 92 104 173
126 726 79 80 99 178
126 727 79 77 92 168
127 726 79 81 103 167
127 727 79 74 100 168
127 728 79 84 110 173
127 729 79 101 127 175
127 730 79 118 138 178
112 720 81 158 160 216
112 721 81 196 194 221
113 720 81 197 193 218
113 721 81 223 214 224
112 721 82 190 189 219
112 722 82 212 206 220
112 723 82 213 207 220
113 722 82 221 211 220
113 723 82 219 209 218
114 720 80 223 214 222
114 720 81 189 185 205
114 721 81 222 211 219
115 720 80 209 202 212
115 720 81 195 190 206
115 721 81 216 207 219
114 722 81 182 184 197
115 722 81 187 188 201
114 722 82 219 208 218
114 723 82 218 207 217
115 722 82 216 206 218
115 723 82 216 205 220
112 724 82 190 190 204
112 724 83 200 197 213
112 725 83 203 198 216
113 724 82 219 209 216
113 724 83 215 205 215
113 725 83 213 204 216
112 726 83 179 176 200
112 727 83 180 174 205
113 726 83 213 204 218
113 727 83 205 199 215
114 724 82 217 207 219
114 724 83 219 208 219
114 725 83 221 210 221
115 724 82 216 205 222
115 724 83 215 205 222
115 725 83 218 207 220
114 726 83 221 212 222
114 727 83 217 209 221
115 726 83 222 213 223
115 727 83 221 212 224
112 727 84 175 169 207
113 727 84 196 191 212
114 727 84 214 206 220
115 727 84 212 204 217
116 720 80 198 193 207
116 721 81 207 202 214
117 720 80 209 202 212
117 721 80 203 198 210
117 721 81 219 211 222
116 722 81 206 202 214
117 722 81 209 202 214
116 723 82 220 209 221
117 722 82 218 209 220
117 723 82 221 208 219
118 720 80 210 203 218
118 721 80 219 211 223
119 720 80 199 193 215
119 721 80 208 204 220
118 722 81 214 206 219
118 723 81 202 198 212
119 722 80 189 187 202
119 722 81 198 194 209
119 723 81 190 189 205
118 723 82 220 207 218
119 723 82 197 194 213
116 724 82 215 205 220
116 725 83 216 208 220
117 724 82 217 205 219
117 725 82 218 207 219
117 725 83 219 210 221
116 726 83 223 213 223
116 727 83 219 208 223
117 726 83 218 207 220
117 727 83 202 190 213
118 724 82 217 207 220
118 725 82 214 205 220
119 724 82 192 192 214
119 725 82 174 176 196
118 726 82 200 191 213
118 726 83 201 191 211
118 727 83 192 180 206
119 726 82 175 172 199
119 727 82 188 186 214
119 727 83 196 188 213
112 728 84 173 172 202
112 729 84 196 195 211
113 728 84 181 177 208
113 729 84 186 187 213
112 730 85 194 192 204
112 731 85 209 203 216
113 730 84 185 186 200
113 730 85 197 196 214
113 731 85 196 196 213
112 731 86 198 197 209
114 728 84 197 192 213
114 729 84 193 192 212
115 728 84 197 191 213
115 729 84 185 184 208
114 730 84 211 208 219
114 730 85 199 199 210
114 731 85 200 200 211
115 730 84 205 204 217
115 730 85 214 211 220
115 731 85 185 187 204
112 732 86 199 198 211
112 733 86 196 197 216
113 732 86 190 191 210
113 733 86 166 173 212
112 734 86 153 164 187
112 734 87 147 159 194
112 735 87 119 131 191
113 734 86 129 143 185
113 734 87 116 131 177
113 735 87 131 147 204
114 732 85 185 187 204
115 732 85 144 155 204
115 733 85 133 143 185
114 732 86 175 179 197
114 733 86 148 155 208
115 733 86 122 133 186
114 734 86 106 121 201
114 735 86 97 116 179
114 735 87 114 133 201
115 734 86 92 113 203
115 735 86 102 119 190
116 728 83 197 185 216
117 728 83 180 173 206
118 728 83 180 177 201
118 729 83 181 175 213
119 728 83 185 184 210
119 729 83 154 157 201
119 730 83 129 135 190
116 728 84 191 183 212
116 729 84 173 172 201
117 729 84 170 166 200
116 730 84 160 167 204
116 731 84 119 134 201
116 731 85 159 161 191
117 730 84 120 126 203
117 731 84 103 112 199
118 729 84 169 165 210
118 730 84 124 126 201
118 731 84 104 114 197
119 730 84 122 135 194
119 731 84 92 125 204
116 732 85 99 111 201
116 733 85 109 125 189
117 732 85 91 108 197
117 733 85 98 120 203
116 734 85 109 129 191
117 734 85 123 142 197
117 735 85 159 174 209
116 734 86 113 131 204
116 735 86 121 133 189
117 735 86 158 169 207
118 732 84 124 141 193
118 732 85 89 116 206
118 733 85 135 154 207
119 732 84 144 159 189
119 733 84 151 169 211
119 733 85 171 186 218
118 734 85 135 155 196
118 735 85 137 162 208
119 734 85 124 145 198
119 735 85 88 118 203
118 735 86 143 161 206
120 721 80 194 191 205
121 721 80 198 194 207
120 722 80 202 197 207
120 722 81 189 187 197
120 723 81 200 195 208
121 722 80 203 201 209
121 723 80 181 179 191
121 723 81 177 176 188
122 721 80 200 196 208
122 722 80 189 187 205
122 723 80 157 154 184
123 722 80 168 163 193
123 723 80 155 144 203
120 724 81 195 191 214
120 725 81 174 167 206
121 724 81 163 162 184
121 725 81 154 154 189
120 724 82 194 194 221
120 725 82 167 165 205
121 726 81 144 148 184
121 727 81 137 146 184
120 726 82 155 156 187
120 727 82 142 150 196
121 726 82 144 148 183
121 727 82 126 140 193
122 724 80 143 139 190
122 724 81 145 146 180
122 725 81 139 141 186
123 724 80 139 140 183
123 725 80 138 145 185
122 726 81 134 141 182
122 727 81 125 141 191
123 726 80 149 159 196
123 726 81 134 146 192
123 727 81 152 165 196
122 727 82 137 151 186
124 724 80 146 152 190
124 725 80 157 164 198
125 725 80 176 181 218
124 726 80 144 154 191
124 727 80 138 152 200
124 727 81 133 147 195
125 726 80 124 135 191
125 727 80 96 112 184
126 726 80 84 100 178
126 727 80 83 96 172
120 728 82 140 150 190
120 728 83 144 153 190
120 729 83 129 141 204
121 728 82 115 135 196
121 729 82 127 141 183
121 729 83 124 141 192
120 730 83 129 139 189
120 731 83 126 151 195
121 730 83 164 171 214
121 731 83 135 139 180
123 728 81 131 143 182
123 729 81 98 114 181
122 728 82 132 151 202
122 729 82 156 164 195
122 729 83 140 154 209
123 728 82 133 145 181
123 729 82 122 132 187
122 730 82 109 119 172
122 730 83 137 145 205
122 731 83 112 124 183
123 730 82 96 109 173
123 731 82 94 113 189
123 731 83 104 129 207
120 731 84 124 147 196
121 732 83 115 122 195
122 732 83 101 119 190
122 733 83 110 129 182
123 732 82 125 138 181
123 732 83 124 138 182
123 733 83 132 148 189
123 734 83 107 129 176
120 732 84 169 178 215
120 733 84 125 142 201
121 732 84 122 130 201
121 733 84 97 117 188
120 734 84 88 111 196
120 734 85 90 115 201
120 735 85 77 110 192
121 734 84 76 100 193
121 735 85 81 108 183
122 733 84 98 117 185
122 734 84 84 104 183
122 735 84 112 130 174
122 735 85 114 129 174
123 734 84 110 132 175
123 735 84 137 151 187
124 728 81 103 120 180
124 729 81 84 105 176
125 728 80 86 106 178
125 728 81 86 106 179
125 729 80 91 111 172
125 729 81 93 116 172
124 730 81 99 115 171
125 730 81 119 140 178
125 731 81 148 162 190
124 730 82 96 111 174
124 731 82 112 127 183
125 731 82 147 161 188
126 728 80 85 102 173
126 729 80 108 129 177
127 728 80 88 109 174
127 729 80 108 132 176
126 730 80 141 158 185
126 730 81 133 152 183
126 731 81 159 171 192
127 730 80 134 151 182
127 731 80 146 158 185
125 732 81 159 171 192
124 732 82 149 161 193
124 733 82 162 174 198
124 733 83 142 159 189
125 732 82 158 169 191
125 733 82 156 168 192
125 733 83 136 154 183
124 734 83 125 143 184
124 735 83 152 164 190
125 734 82 118 135 176
125 734 83 120 139 175
125 735 83 140 153 186
126 732 81 158 168 189
126 733 81 144 154 181
127 732 80 140 151 179
127 732 81 155 165 186
127 733 80 141 154 181
127 733 81 144 156 181
126 733 82 148 158 185
127 734 81 121 137 171
127 735 81 120 135 170
126 734 82 117 133 175
126 735 82 124 138 178
124 735 84 151 163 188
105 707 96 87 109 147
106 704 96 96 119 152
106 705 96 91 116 150
106 705 97 104 126 154
107 704 97 97 116 149
107 705 96 96 116 148
107 705 97 95 121 151
107 704 98 90 115 148
106 706 96 94 116 153
106 706 97 110 132 158
106 707 96 95 115 152
106 707 97 101 125 154
107 706 97 102 129 154
107 706 98 96 125 153
107 707 98 97 126 153
105 708 96 93 116 151
105 709 96 100 125 153
105 709 97 98 125 154
104 711 96 90 108 146
105 710 96 97 122 152
105 710 97 94 124 154
105 711 96 85 109 148
105 711 97 66 103 146
106 708 97 98 123 153
106 709 97 101 130 156
106 708 98 101 128 155
106 709 98 96 126 156
107 708 98 101 129 156
107 708 99 98 127 154
107 709 98 99 128 157
107 709 99 93 123 155
106 710 97 93 124 155
106 710 98 78 115 151
106 711 98 71 106 149
106 711 99 83 113 152
107 710 98 85 118 152
107 710 99 86 117 153
107 711 99 90 118 156
108 704 97 89 112 146
108 704 98 93 114 148
108 705 98 95 121 151
108 705 99 95 119 147
109 704 98 102 117 151
109 704 99 108 119 152
109 705 99 103 124 149
108 706 98 96 124 152
108 706 99 98 123 149
108 707 99 95 125 152
109 706 99 101 126 150
109 707 99 100 126 151
110 704 99 110 122 152
110 705 99 107 125 150
109 707 100 97 123 149
110 704 100 110 121 151
110 704 101 110 121 151
110 705 100 107 125 152
110 705 101 110 126 153
111 704 101 107 116 147
111 705 101 110 123 150
111 704 102 101 111 140
111 704 103 98 107 138
111 705 102 104 118 145
111 705 103 105 117 142
110 706 100 101 125 150
110 706 101 104 123 150
110 707 100 100 125 150
110 707 101 102 124 151
111 706 101 107 123 149
110 706 102 103 120 148
110 707 102 96 117 150
111 706 102 103 119 147
111 706 103 105 120 144
111 707 102 96 115 149
111 707 103 95 113 148
108 708 99 101 128 155
108 709 99 99 127 157
109 708 99 102 129 155
108 710 99 91 119 155
108 711 99 87 116 155
108 709 100 102 129 158
109 708 100 95 123 149
109 709 100 89 118 150
108 710 100 82 109 152
108 711 100 77 104 150
109 710 100 81 108 151
109 710 101 85 108 151
109 711 100 74 97 150
109 711 101 75 97 149
110 708 100 95 122 148
110 708 101 98 123 152
110 709 101 94 118 151
110 708 102 93 114 153
110 709 102 87 109 152
111 708 102 89 110 151
111 708 103 90 109 149
111 709 103 85 107 149
110 710 101 91 112 153
110 711 101 84 104 153
110 710 102 86 107 153
110 711 102 83 106 151
110 711 103 81 103 149
111 710 103 83 106 149
107 704 109 89 109 140
107 705 109 81 103 138
107 704 110 85 110 142
107 704 111 92 116 148
107 705 110 84 105 140
107 705 111 92 114 147
107 706 110 91 110 144
107 706 111 99 116 148
107 707 111 103 118 147
107 708 111 103 117 144
108 704 107 89 107 135
109 704 106 86 100 134
109 704 107 86 101 134
109 705 106 88 98 131
109 705 107 87 99 135
109 706 106 82 94 129
109 706 107 87 97 135
109 707 106 84 99 132
109 707 107 82 94 132
110 704 104 87 97 128
110 704 105 89 99 132
110 705 104 95 107 133
110 705 105 93 100 129
111 704 104 92 102 134
111 705 104 95 106 133
110 704 106 86 97 133
110 705 106 88 96 130
110 706 104 94 110 137
110 706 105 93 103 130
110 707 104 94 113 141
110 707 105 89 105 134
111 706 104 103 116 140
111 707 104 98 117 148
110 706 106 88 99 128
110 707 106 82 96 129
108 704 108 92 110 138
108 704 109 91 110 139
108 705 108 84 100 134
108 705 109 82 102 137
108 706 108 86 98 137
108 706 109 88 104 140
108 707 108 84 98 136
108 707 109 94 108 141
109 706 108 88 99 138
109 707 108 88 100 139
108 706 110 92 109 143
108 707 110 97 111 143
108 707 111 99 114 145
109 708 106 79 99 132
109 708 107 86 101 135
109 709 106 92 110 138
109 709 107 86 104 137
109 710 106 100 115 148
109 710 107 85 103 139
109 711 106 93 109 147
109 711 107 76 96 137
110 708 104 95 117 147
110 708 105 82 103 137
110 709 104 87 109 147
110 709 105 86 107 139
111 708 104 95 115 150
111 709 104 91 113 151
110 708 106 74 97 131
110 709 106 96 114 141
110 710 104 84 104 145
110 710 105 94 108 142
110 711 104 83 104 145
110 711 105 90 103 146
110 710 106 105 119 145
110 711 106 97 108 147
108 708 108 85 98 133
108 708 109 89 104 138
108 709 108 87 102 137
108 709 109 89 105 138
109 708 108 84 100 135
109 709 108 86 102 136
108 708 110 90 106 138
108 708 111 97 111 141
108 709 110 91 107 140
108 709 111 96 109 141
108 710 109 85 105 141
109 710 108 78 96 135
109 710 109 82 102 140
109 711 108 78 96 135
109 711 109 86 107 139
108 710 110 87 108 141
108 710 111 92 110 141
108 711 110 87 109 139
108 711 111 86 107 139
109 711 110 92 111 138
104 712 96 87 105 148
104 713 96 97 112 152
104 713 97 91 108 148
105 712 96 82 103 148
105 712 97 77 102 148
105 713 97 85 102 147
105 712 98 78 104 151
105 713 98 80 101 147
105 713 99 81 104 150
104 714 96 93 115 151
104 714 97 95 114 150
104 715 96 89 118 151
104 715 97 94 118 151
105 714 97 92 109 149
104 715 98 94 112 151
105 714 98 86 102 147
105 714 99 80 99 146
105 715 98 95 109 151
105 715 99 94 105 149
106 712 98 84 107 154
106 712 99 87 111 152
106 713 99 84 107 150
107 712 99 100 123 159
105 714 100 87 103 149
105 715 100 92 104 148
106 713 100 89 111 150
107 712 100 95 117 154
107 713 100 100 120 153
107 713 101 106 124 154
106 714 100 95 112 151
106 715 100 96 110 150
106 715 101 98 112 149
107 714 100 100 119 151
107 714 101 105 122 153
107 715 101 101 117 151
107 715 102 104 120 154
104 716 96 121 140 164
104 716 97 118 137 161
104 717 96 152 157 170
104 717 97 148 156 169
104 716 98 116 133 158
104 717 98 140 150 166
105 716 98 98 117 151
105 716 99 102 118 152
105 717 99 126 141 163
104 718 96 160 160 168
104 718 97 154 158 169
104 719 96 159 159 166
104 719 97 155 158 168
104 718 98 152 157 169
104 718 99 150 156 168
104 719 98 155 159 169
105 718 98 147 154 169
105 718 99 137 148 166
105 719 99 148 155 168
105 716 100 99 114 153
105 716 101 102 116 155
105 717 100 97 123 154
105 717 101 97 118 155
105 718 100 95 122 154
105 718 101 82 109 150
105 719 100 117 137 161
105 719 101 77 105 149
105 718 102 91 113 152
105 719 102 91 114 154
106 716 101 98 112 151
106 717 101 101 115 154
106 716 102 97 112 149
106 717 102 99 116 152
107 716 102 97 112 149
107 717 102 106 119 151
107 717 103 110 122 152
106 719 100 96 124 153
106 719 101 85 116 152
106 718 102 95 116 154
106 719 102 80 108 153
106 719 103 82 103 151
107 718 102 103 116 154
107 718 103 106 117 155
107 719 103 81 100 149
108 712 100 84 106 150
108 712 101 86 108 149
108 713 101 96 117 152
109 712 100 76 98 149
109 712 101 76 99 147
109 713 101 83 106 148
109 712 102 76 101 148
109 713 102 80 105 148
109 713 103 78 101 148
108 714 101 105 124 156
108 714 102 101 120 157
108 714 103 88 110 154
108 715 102 98 117 157
108 715 103 84 108 152
109 714 102 88 110 153
109 714 103 81 104 150
109 715 103 79 104 150
110 712 102 79 103 148
110 712 103 77 101 147
108 716 103 88 110 149
108 717 103 106 122 152
108 718 103 111 124 154
109 712 105 84 103 150
109 713 104 78 101 148
109 713 105 81 102 150
109 712 106 83 100 146
109 712 107 74 96 137
109 713 106 80 102 148
109 713 107 75 99 141
109 714 104 78 101 147
109 714 105 77 99 148
109 715 104 77 102 148
109 715 105 80 102 148
109 714 106 74 98 147
109 714 107 74 98 143
109 715 106 78 100 146
109 715 107 76 98 143
110 712 104 75 99 146
110 712 105 80 99 148
110 713 104 77 101 146
110 712 106 89 106 146
109 712 108 81 102 135
109 712 109 90 109 136
109 713 108 79 100 136
109 713 109 83 102 131
108 712 110 95 112 137
108 712 111 95 111 141
108 713 111 103 116 139
109 712 110 93 111 138
109 713 110 91 105 132
109 713 111 98 110 134
109 714 108 74 96 135
109 714 109 74 94 128
109 715 108 78 98 135
109 715 109 81 100 130
109 714 110 80 96 128
109 714 111 96 109 134
109 715 110 86 101 130
109 715 111 97 110 133
108 716 104 80 105 149
108 717 104 96 116 150
108 717 105 92 112 149
109 716 105 78 102 145
109 717 105 91 111 148
109 716 106 80 102 143
109 716 107 80 103 140
109 717 106 93 112 146
109 717 107 91 113 142
108 718 104 111 125 154
108 718 105 105 120 151
108 719 104 96 109 147
108 719 105 101 115 147
109 718 105 97 114 147
109 719 105 99 114 147
109 718 106 93 110 142
109 718 107 94 112 141
109 719 106 96 111 143
109 719 107 94 111 139
109 716 108 83 103 136
109 716 109 90 106 130
109 717 109 91 106 130
109 716 110 96 108 128
109 716 111 102 112 130
109 717 110 91 105 125
109 717 111 98 110 127
109 718 108 95 114 139
109 718 109 94 111 135
109 719 108 96 113 139
109 719 109 97 114 138
109 718 110 96 111 131
109 718 111 103 116 133
109 719 110 97 113 135
109 719 111 104 117 137
110 716 108 84 102 133
110 716 109 93 108 130
110 717 108 88 108 135
110 717 109 92 108 133
110 718 108 96 114 139
107 704 112 99 123 154
107 704 113 100 124 155
107 705 112 103 122 154
107 705 113 106 125 157
107 704 114 106 127 156
107 704 115 113 132 159
107 705 114 108 126 157
107 705 115 120 134 159
107 706 112 106 122 152
107 706 113 108 124 155
107 707 112 108 123 149
107 707 113 109 124 151
107 706 114 109 124 155
107 706 115 124 135 158
107 707 114 110 123 153
107 707 115 123 133 158
107 704 116 112 131 160
107 705 116 124 138 161
107 708 112 106 119 145
107 708 113 109 124 150
107 709 112 107 121 146
107 709 113 109 124 150
107 708 114 106 121 151
107 709 114 107 123 152
108 707 115 122 133 158
108 704 117 111 127 159
108 705 116 122 138 161
108 705 117 114 129 157
109 704 117 109 122 155
109 705 117 108 123 154
108 706 116 124 137 159
108 706 117 110 126 154
108 707 116 121 133 157
109 706 117 100 118 149
109 707 117 108 126 153
110 705 117 107 123 154
110 704 118 108 122 153
110 705 118 103 122 152
111 704 118 104 122 150
111 705 118 97 118 146
110 706 117 94 115 147
110 707 117 100 122 149
110 706 118 96 117 148
111 706 118 94 116 145
111 707 118 104 125 150
108 709 112 105 117 145
108 709 113 110 123 150
108 708 114 106 121 152
108 708 115 115 127 155
108 709 114 105 122 153
108 709 115 107 123 154
108 710 112 101 116 146
108 710 113 107 121 151
108 711 112 98 115 145
108 711 113 104 121 151
108 710 114 103 121 154
108 710 115 102 121 152
108 711 114 107 124 154
108 711 115 111 128 155
108 708 116 115 127 154
108 709 116 107 122 152
109 708 117 110 128 153
109 709 116 102 119 149
109 709 117 109 127 152
108 710 116 105 122 152
109 710 116 113 130 156
109 710 117 114 133 155
109 711 116 119 135 158
109 711 117 117 135 157
110 708 117 107 127 151
110 709 117 119 134 155
111 709 117 118 133 152
111 708 118 119 135 156
111 709 118 125 137 155
110 710 117 121 136 156
110 711 117 117 133 152
111 710 117 123 135 153
111 711 117 125 137 153
111 710 118 125 136 152
111 711 118 127 137 152
108 712 112 101 117 144
108 712 113 106 122 148
108 713 112 108 121 145
108 713 113 119 132 152
108 712 114 112 128 153
108 712 115 121 137 158
108 713 114 130 141 160
108 713 115 132 144 161
108 714 112 115 126 146
108 714 113 128 139 155
108 715 112 117 127 145
108 715 113 128 138 154
109 714 112 109 121 141
109 715 112 109 121 139
108 714 114 138 148 162
108 714 115 140 150 165
108 715 114 139 147 161
108 715 115 144 151 166
108 712 116 125 140 159
108 713 116 128 141 159
109 712 116 123 139 159
109 712 117 120 136 158
109 713 116 128 141 158
109 713 117 121 137 157
109 714 116 134 144 160
109 714 117 131 141 157
109 715 116 137 145 160
110 712 117 117 133 154
110 713 117 119 133 151
111 712 117 120 132 150
111 713 117 121 132 149
111 712 118 127 136 151
111 713 118 124 133 149
110 714 117 121 133 150
110 715 117 124 136 152
111 714 118 118 130 146
111 715 118 112 125 145
108 716 113 130 139 154
108 717 112 119 128 141
108 717 113 128 137 151
109 716 112 115 124 140
109 716 113 127 136 152
109 717 112 113 122 137
109 717 113 127 136 151
108 716 114 139 147 161
108 716 115 141 149 164
108 717 114 135 145 160
108 717 115 136 146 163
108 718 112 117 127 140
108 718 113 126 135 149
108 719 112 115 126 144
108 719 113 124 135 152
109 718 112 110 121 136
109 719 112 108 121 139
108 718 114 130 141 157
108 718 115 126 141 160
108 719 114 126 139 158
108 719 115 122 138 159
109 716 116 136 145 160
109 716 117 129 140 156
109 717 116 127 139 156
109 717 117 114 130 149
108 718 116 117 134 156
108 719 116 113 133 156
109 718 116 114 130 152
109 718 117 109 128 149
109 719 116 118 136 158
109 719 117 116 135 158
110 716 117 124 136 153
110 717 117 120 134 153
110 716 118 111 127 147
110 717 118 98 120 145
111 716 118 104 119 143
111 717 118 89 109 141
111 717 119 72 92 136
110 718 117 100 122 147
110 719 117 105 128 154
110 718 118 95 119 145
110 719 118 87 113 145
111 718 118 67 93 136
111 718 119 65 87 135
111 719 118 74 101 139
111 719 119 71 93 136
103 723 96 154 158 169
103 724 96 153 157 169
103 725 96 130 142 158
103 725 97 141 148 162
103 726 96 77 108 151
103 727 96 40 88 150
103 728 96 65 93 155
103 729 96 45 62 139
103 729 97 48 70 140
103 729 98 59 81 145
103 730 96 26 45 126
103 730 97 30 52 129
103 731 96 19 38 121
103 731 97 31 47 123
103 730 98 38 59 135
103 730 99 58 71 140
103 731 98 32 50 126
103 731 99 43 55 130
103 732 97 31 46 118
103 732 98 34 50 120
104 720 96 158 157 165
104 720 97 156 158 168
104 721 96 158 158 167
104 721 97 157 158 167
104 720 98 158 159 168
104 720 99 156 158 167
104 721 98 156 157 166
104 721 99 156 157 164
105 720 99 153 157 168
105 721 99 155 157 166
104 722 96 158 160 169
104 722 97 160 159 167
104 723 96 153 157 168
104 723 97 160 160 167
104 722 98 156 157 165
104 722 99 154 156 164
104 723 98 158 158 166
104 723 99 153 155 164
105 720 100 135 149 167
105 720 101 112 135 159
105 721 100 144 153 169
105 721 101 123 140 161
104 723 100 152 156 169
105 722 100 146 154 168
105 722 101 123 138 159
105 723 100 144 153 168
105 723 101 106 127 152
106 720 101 101 127 155
106 721 101 112 131 157
106 720 102 91 119 158
106 721 102 120 140 165
106 721 103 103 125 160
107 720 103 69 97 145
107 721 103 95 115 154
106 722 101 128 141 162
106 723 101 110 124 151
106 722 102 123 142 165
106 722 103 107 129 160
106 723 102 102 125 153
106 723 103 100 126 155
107 722 103 104 125 161
107 723 103 86 117 154
104 724 97 159 161 169
104 725 97 149 154 165
104 724 98 158 159 167
104 724 99 153 155 165
104 725 98 155 158 168
104 725 99 146 152 165
104 726 97 77 106 145
104 727 96 26 84 148
104 727 97 37 81 147
104 726 98 103 124 151
104 726 99 107 126 149
104 727 98 47 87 144
104 727 99 69 102 140
104 724 100 141 149 164
104 725 100 127 140 158
104 725 101 90 110 141
105 724 100 136 147 164
105 724 101 95 118 145
105 725 101 89 109 142
105 725 102 104 117 146
104 726 100 87 114 140
104 726 101 83 109 139
104 727 100 96 121 146
104 727 101 112 132 153
104 727 102 110 128 148
105 726 102 114 127 149
105 727 102 126 138 154
106 724 102 113 131 156
106 724 103 119 138 161
106 725 102 135 147 163
106 725 103 147 154 167
107 724 103 115 135 162
107 725 103 142 151 166
106 726 102 141 148 160
106 726 103 151 154 164
106 727 103 155 157 165
107 720 104 69 89 144
107 721 104 74 103 149
107 722 104 74 106 153
107 723 104 75 111 153
107 724 104 101 127 159
107 725 104 132 144 163
106 727 104 153 155 164
107 726 104 148 154 166
107 727 104 149 153 163
108 720 104 76 94 144
108 720 105 85 102 144
108 721 104 64 92 146
108 721 105 68 91 145
108 721 106 75 89 142
109 720 106 89 104 142
109 720 107 88 103 139
109 721 106 76 91 140
109 721 107 76 92 138
108 722 104 59 98 150
108 722 105 51 89 144
108 723 104 59 102 150
108 723 105 45 90 145
108 722 106 58 82 140
108 723 106 55 86 142
108 723 107 58 84 141
109 722 106 61 80 139
109 722 107 65 87 137
109 723 107 66 91 141
109 720 108 84 100 134
109 720 109 85 103 134
109 721 108 76 93 135
109 721 109 77 94 134
108 721 111 78 96 139
109 720 110 89 107 135
109 720 111 96 112 139
109 721 110 79 95 137
109 721 111 82 99 139
109 722 108 74 96 136
109 722 109 78 97 139
109 723 108 80 102 140
109 723 109 88 108 142
108 722 111 74 93 137
108 723 111 74 98 136
109 722 110 79 97 138
109 723 110 78 102 138
109 723 111 80 103 139
108 724 105 68 102 149
108 725 105 110 130 158
108 724 106 57 92 144
108 725 106 97 120 154
109 724 107 66 93 144
109 725 106 84 112 150
109 725 107 72 102 145
108 726 105 135 145 162
108 727 105 138 146 161
108 726 106 115 132 158
108 727 106 120 133 156
109 726 106 104 126 157
109 726 107 87 110 150
109 727 106 92 114 153
109 727 107 83 101 146
109 724 108 80 102 142
109 724 109 93 111 143
109 725 108 77 99 142
109 725 109 91 108 142
109 724 110 97 115 144
109 724 111 95 115 145
109 725 110 97 114 146
109 725 111 100 117 148
109 726 108 87 105 143
109 726 109 91 107 143
109 727 108 88 102 143
109 727 109 89 107 144
109 726 110 91 106 146
109 726 111 94 110 148
109 727 110 85 103 147
109 727 111 88 106 150
110 727 108 94 109 144
110 727 109 92 109 146
104 728 96 46 87 151
104 728 97 48 82 151
104 729 97 67 86 149
104 728 98 65 91 154
104 728 99 105 125 159
104 729 98 76 97 150
104 729 99 88 106 150
104 731 96 7 38 122
104 730 99 75 84 143
104 731 99 58 65 135
104 728 100 130 143 165
104 728 101 134 146 162
104 729 100 116 128 156
104 729 101 129 140 159
104 729 102 130 141 158
105 728 102 134 144 158
105 728 103 144 151 163
105 729 102 134 145 159
105 729 103 132 143 158
104 730 100 85 95 143
104 730 101 109 119 150
104 731 100 74 83 142
104 731 101 85 94 146
104 730 102 114 126 152
104 731 102 93 104 149
104 731 103 100 114 153
105 730 102 125 136 154
105 730 103 113 127 153
105 731 103 97 115 153
106 728 103 150 154 164
106 729 103 135 144 158
106 730 103 109 129 152
104 732 96 21 45 123
104 732 97 31 49 117
104 733 96 27 59 128
104 733 97 29 53 121
104 732 98 32 48 117
104 732 99 41 49 122
104 733 98 32 51 119
104 733 99 27 38 117
104 734 96 40 81 149
104 734 97 30 61 136
104 735 96 36 90 159
104 735 97 52 84 155
104 734 98 32 58 133
104 734 99 24 52 127
104 735 98 64 88 155
104 735 99 63 90 148
104 732 100 54 65 132
104 732 101 69 77 139
104 733 100 39 41 117
104 733 101 52 57 119
104 732 102 73 87 143
104 732 103 64 89 142
104 733 102 61 74 127
104 733 103 55 86 135
105 732 103 75 98 147
104 734 100 32 38 114
104 734 101 31 35 109
104 735 100 54 82 138
104 735 101 36 63 128
104 734 102 38 47 107
104 734 103 51 66 118
104 735 102 28 42 111
104 735 103 33 42 108
105 730 104 91 118 151
105 731 104 86 114 151
106 728 104 146 151 162
106 729 104 114 127 148
107 728 104 144 150 162
107 728 105 143 149 161
107 729 105 119 129 152
106 730 104 83 108 147
106 730 105 83 102 148
106 731 105 78 105 147
107 730 105 92 104 147
107 731 105 82 102 145
107 730 106 100 109 148
107 731 106 95 105 145
105 732 104 75 103 148
105 732 105 72 101 147
105 733 104 55 85 137
105 733 105 64 90 141
104 734 104 65 80 129
104 735 104 52 61 113
105 734 104 63 86 134
105 734 105 71 93 137
105 735 105 67 82 123
105 734 106 72 98 143
106 732 105 71 102 146
106 733 105 70 98 144
107 732 105 76 104 144
106 733 106 79 105 145
107 732 106 87 107 145
107 733 106 91 110 146
106 734 106 85 106 146
106 735 106 75 93 135
106 735 107 66 87 132
107 734 106 92 109 148
107 734 107 83 101 144
107 735 107 75 97 139
107 735 108 76 103 142
108 728 105 137 144 159
108 729 105 129 138 158
108 728 106 117 130 155
108 729 106 121 132 157
109 728 106 92 112 151
109 728 107 88 104 145
109 729 107 105 117 150
108 730 106 114 123 152
108 730 107 115 125 151
108 731 106 103 114 147
108 731 107 111 120 149
109 729 108 122 129 149
109 728 110 101 119 150
109 728 111 92 113 149
109 729 110 136 142 153
109 729 111 129 138 154
108 730 108 118 126 150
109 730 108 133 137 154
109 730 109 149 150 158
109 731 108 124 131 153
109 731 109 141 144 155
109 730 110 149 150 157
109 730 111 144 146 155
109 731 110 148 149 157
109 731 111 147 148 157
110 728 108 106 118 148
110 728 109 102 117 145
110 729 108 133 138 155
110 729 109 140 144 156
110 728 110 115 129 150
110 729 110 136 142 155
108 732 106 99 112 147
108 732 107 99 114 147
108 733 107 87 105 144
108 734 107 78 98 143
108 732 108 98 111 147
108 733 108 84 98 142
108 733 109 92 103 143
109 732 108 102 112 145
109 732 109 121 127 149
109 733 109 100 106 143
109 732 110 137 139 152
109 732 111 139 141 152
109 733 110 115 117 146
109 733 111 129 129 147
108 734 108 70 92 141
108 734 109 83 100 142
108 735 108 76 102 144
108 735 109 82 104 142
109 734 109 90 101 142
109 735 109 95 108 142
109 734 110 105 111 143
109 734 111 117 120 143
109 735 110 103 115 143
109 735 111 117 125 146
108 720 112 105 118 144
108 720 113 116 128 153
108 721 112 81 100 140
108 721 113 86 104 145
108 720 114 120 133 158
108 720 115 119 134 158
108 721 114 90 108 147
108 721 115 101 120 150
109 720 115 115 131 157
109 721 115 94 113 150
108 722 112 70 90 137
108 722 113 70 89 140
108 723 112 71 94 138
108 723 113 72 94 142
109 722 113 72 89 142
109 723 113 74 95 144
108 722 114 76 93 143
109 722 114 77 94 145
109 722 115 82 98 148
109 723 114 78 97 146
109 723 115 82 100 148
109 720 116 116 135 159
109 720 117 109 129 156
109 721 116 99 118 153
109 721 117 91 110 148
109 722 116 86 99 149
109 722 117 88 102 146
109 723 116 87 102 147
109 723 117 97 112 146
110 720 117 91 115 148
110 721 117 85 104 143
110 720 118 78 102 139
110 721 118 90 107 139
111 720 119 81 101 135
111 721 119 105 120 142
110 722 117 93 107 143
110 722 118 105 119 143
110 723 118 114 128 148
110 723 119 110 126 144
111 722 119 111 125 143
111 723 119 103 120 141
108 724 112 86 108 145
109 724 112 94 115 148
109 724 113 97 117 150
109 725 112 105 124 151
109 725 113 117 134 158
109 724 114 98 118 150
109 724 115 95 117 148
109 725 114 119 136 157
109 725 115 120 137 157
109 726 112 101 117 151
109 726 113 105 122 153
109 727 112 88 106 150
109 727 113 87 106 149
109 726 114 108 124 152
109 726 115 111 126 152
109 727 114 87 104 148
109 727 115 91 106 150
109 724 116 97 116 147
109 724 117 108 124 149
109 725 116 123 138 158
109 725 117 123 138 159
109 725 118 110 129 152
109 726 116 115 129 155
109 726 117 105 123 152
109 727 116 96 111 151
109 727 117 89 107 148
109 726 118 92 112 146
109 727 118 84 103 146
110 724 118 114 130 149
110 724 119 108 124 145
110 725 118 95 116 143
110 725 119 82 102 138
111 724 119 88 106 137
111 725 119 82 99 136
110 726 118 84 104 141
110 726 119 78 97 139
110 727 118 86 105 145
110 727 119 90 108 145
111 722 120 105 121 142
111 723 120 91 108 138
111 724 120 80 95 135
111 725 120 82 95 136
111 726 120 94 108 141
111 727 120 108 122 147
109 728 112 88 111 149
109 728 113 83 107 148
109 729 112 121 135 156
109 729 113 111 129 154
109 728 114 77 99 147
109 728 115 71 94 147
109 729 114 99 120 152
109 729 115 88 113 149
109 730 112 140 146 158
109 730 113 139 146 161
109 731 112 147 148 157
109 731 113 144 147 157
109 730 114 135 145 162
109 730 115 134 145 164
109 731 114 145 149 160
109 731 115 144 151 162
109 728 116 78 98 150
109 728 117 81 101 150
109 729 116 82 108 149
109 729 117 85 108 150
109 728 118 82 102 148
109 729 118 93 115 151
109 730 116 126 140 163
109 730 117 108 128 157
109 731 116 139 148 163
109 731 117 118 135 156
109 730 118 99 121 152
110 728 118 88 108 149
110 728 119 102 120 151
110 729 118 94 115 152
110 729 119 103 121 150
110 730 118 96 118 150
110 730 119 107 122 150
110 731 118 105 126 153
110 731 119 110 124 154
109 732 112 144 145 153
109 732 113 144 145 154
109 733 112 139 141 150
109 733 113 138 140 149
109 732 114 144 147 157
109 732 115 140 146 158
109 733 114 139 142 152
109 733 115 134 139 152
109 734 112 127 132 144
109 734 113 128 131 143
109 735 112 120 129 145
109 735 113 122 129 143
109 734 114 132 135 147
109 734 115 132 136 150
110 734 114 128 132 144
110 734 115 127 132 145
110 735 114 129 133 144
110 735 115 123 130 142
109 732 116 135 144 158
109 732 117 138 147 163
109 733 116 137 142 156
109 733 117 147 153 165
109 734 117 143 147 158
110 733 117 152 157 168
110 732 118 129 143 163
110 732 119 116 132 155
110 733 118 142 151 167
110 733 119 122 136 157
110 734 116 132 137 150
110 734 117 146 149 160
110 735 116 127 131 145
110 735 117 142 145 155
110 734 118 144 150 164
110 734 119 124 137 156
110 735 118 141 147 162
110 735 119 121 134 156
111 735 119 113 127 154
111 728 120 106 122 145
111 729 120 124 134 149
110 730 120 132 138 153
110 731 120 135 140 157
111 730 120 147 149 158
111 730 121 155 155 161
111 731 120 154 153 161
111 731 121 159 158 164
110 732 120 127 134 155
110 733 120 119 130 153
111 732 120 150 151 162
111 732 121 153 154 163
111 733 120 139 145 161
111 733 121 135 142 156
111 734 120 115 129 153
111 735 120 95 114 147
112 704 118 98 117 148
112 705 118 103 122 149
113 704 118 86 104 142
113 705 118 99 116 149
113 705 119 98 114 148
112 706 118 101 120 147
112 707 118 97 118 144
113 706 118 107 124 151
113 706 119 107 123 153
113 707 118 94 114 144
113 707 119 97 116 147
114 704 119 100 113 144
114 705 119 90 106 142
115 704 119 126 136 157
115 705 119 97 113 145
114 706 119 94 111 148
114 707 119 95 113 150
115 706 119 80 100 142
112 708 118 112 129 151
112 709 118 132 143 160
113 708 118 86 108 139
113 708 119 91 113 142
113 709 118 111 128 149
113 709 119 113 129 149
112 710 118 134 144 159
112 711 118 128 138 152
112 711 119 134 143 157
113 710 119 125 136 153
113 711 119 127 137 152
114 708 119 93 113 148
114 709 119 108 126 148
114 710 119 121 133 150
114 711 119 120 132 148
115 704 120 123 135 156
115 705 120 96 112 145
115 706 120 77 95 141
115 707 120 74 94 143
115 707 121 73 92 141
114 708 120 90 114 145
114 709 120 105 125 150
115 708 120 76 100 142
115 708 121 76 98 141
115 709 120 91 115 146
115 709 121 86 110 143
114 710 120 125 138 156
114 711 120 124 136 152
115 710 120 119 134 155
115 710 121 101 120 148
115 711 120 129 141 159
115 711 121 112 127 153
116 704 121 100 119 148
116 705 121 95 112 146
116 704 122 85 110 145
116 705 122 95 113 146
117 704 122 79 101 144
117 704 123 79 97 143
117 705 122 89 108 145
117 705 123 92 109 146
116 706 121 85 102 142
116 707 121 81 97 141
116 706 122 98 114 146
116 707 122 98 112 145
117 706 123 105 119 149
117 707 123 110 122 148
117 704 124 84 99 142
117 705 124 93 107 146
117 706 124 100 114 146
117 707 124 113 123 149
118 704 124 91 105 144
118 704 125 100 111 145
118 705 124 93 107 145
118 705 125 101 112 147
