ply
format ascii 1.0
comment Version 2, Copyright 2017, 8i Labs, Inc.
comment frame_to_world_scale 0.179523
comment frame_to_world_translation -45.2095 7.18301 -54.3561
comment width 1023
element vertex 2050
property float x
property float y
property float z
property uchar red
property uchar green
property uchar blue
end_header
198 431 256 120 129 144
198 431 257 105 118 138
199 430 258 123 127 144
199 430 259 144 145 153
199 431 258 127 132 144
199 431 259 137 138 145
199 424 264 132 137 170
200 416 268 121 129 144
200 416 269 136 141 152
200 417 268 151 152 159
200 417 269 156 155 163
201 416 269 124 131 146
200 417 270 161 161 168
201 416 270 121 130 146
201 417 270 147 150 160
201 417 271 140 147 160
200 418 268 176 173 178
200 418 269 173 171 177
200 419 268 170 173 182
200 419 269 161 166 178
200 418 270 167 167 175
201 418 270 161 164 174
201 418 271 146 153 168
201 419 270 148 157 174
201 419 271 138 149 172
202 416 270 106 119 140
202 416 271 103 119 139
202 417 271 128 137 153
200 421 267 136 145 180
200 423 265 120 125 170
200 422 266 123 129 174
200 422 267 129 136 178
200 423 266 119 126 171
201 422 267 128 134 178
201 423 266 120 127 170
201 423 267 123 130 174
200 420 268 144 154 179
200 420 269 139 150 178
200 421 268 135 146 180
201 420 269 138 149 177
201 421 268 134 143 181
201 421 269 130 142 179
201 420 270 136 146 176
201 420 271 139 149 178
201 421 270 128 141 177
201 422 268 134 141 182
201 422 269 135 143 182
201 423 268 127 134 176
202 420 271 136 147 179
202 421 270 129 141 179
202 421 271 143 155 187
203 421 271 154 166 194
202 422 269 133 141 180
202 423 268 127 134 174
202 423 269 130 137 176
203 423 269 130 137 173
202 422 270 136 145 180
203 422 270 140 150 181
203 422 271 148 161 187
203 423 270 138 146 178
203 423 271 146 156 183
204 423 271 147 155 180
200 425 261 187 181 182
200 425 262 186 182 185
200 425 263 175 177 185
200 426 260 180 176 180
200 426 261 182 178 182
200 427 260 155 160 171
200 427 261 147 156 171
200 426 262 180 179 182
201 426 262 170 172 180
201 426 263 164 169 179
201 427 262 128 141 162
201 427 263 102 120 151
200 429 259 108 121 140
200 430 259 153 151 157
200 431 259 144 144 150
200 428 260 88 112 138
200 428 261 79 109 142
200 429 260 109 122 139
201 428 261 77 105 140
201 429 261 106 119 139
201 428 262 65 88 135
201 428 263 50 72 129
201 429 262 99 112 137
201 429 263 93 107 134
200 430 260 144 144 151
200 431 260 148 146 150
200 431 261 151 148 151
201 430 261 138 140 149
201 431 261 148 145 150
201 430 262 136 138 147
201 430 263 134 136 146
201 431 262 148 145 149
201 431 263 149 146 149
202 429 263 117 126 141
202 430 263 133 135 146
202 431 263 146 143 149
200 424 264 128 133 166
200 424 265 120 124 165
200 425 264 147 152 172
201 424 265 122 125 165
201 425 264 145 152 171
201 425 265 122 126 160
201 424 266 122 127 167
201 424 267 124 130 169
201 425 266 121 124 161
201 426 264 136 147 167
201 426 265 113 123 155
201 427 264 95 111 149
202 424 267 124 130 166
202 425 266 119 122 157
202 425 267 123 127 159
203 425 267 119 123 152
202 426 265 97 106 148
202 427 264 81 98 142
202 427 265 72 84 137
202 426 266 99 106 146
202 426 267 111 115 148
202 427 266 69 81 133
203 426 267 107 112 146
203 427 266 79 91 134
203 427 267 98 108 140
202 424 268 124 131 168
202 425 268 124 130 163
203 424 268 123 129 166
203 424 269 124 130 168
203 425 268 121 126 158
203 425 269 121 126 161
203 424 270 130 137 171
203 426 268 113 117 148
203 427 268 108 118 143
201 428 264 49 67 130
202 428 264 46 67 127
202 428 265 51 63 128
202 429 264 86 101 132
202 429 265 73 90 129
203 429 265 86 102 131
203 428 266 74 88 131
203 428 267 115 126 147
203 429 266 98 111 137
203 429 267 134 142 155
202 430 264 128 132 146
202 430 265 117 126 146
202 431 264 147 147 154
202 431 265 139 143 154
203 430 265 105 117 139
203 431 265 127 136 150
203 430 266 108 121 139
203 430 267 130 138 152
203 431 266 113 126 143
203 431 267 122 133 149
204 425 269 121 126 158
204 424 270 130 136 168
204 424 271 139 144 172
204 425 270 122 129 160
204 425 271 127 134 164
205 424 271 138 143 171
205 425 270 117 124 154
205 425 271 120 127 157
204 426 268 116 121 151
204 426 269 118 122 150
204 427 268 112 121 145
204 427 269 112 120 142
205 427 269 111 117 140
204 426 270 117 122 152
205 426 270 117 121 149
205 426 271 118 123 151
205 427 270 114 118 143
205 427 271 115 117 144
206 426 271 115 119 146
206 427 271 117 119 143
204 429 267 147 151 161
204 430 267 143 149 160
204 431 267 126 136 150
204 428 268 126 135 152
204 428 269 112 122 142
204 429 268 139 147 159
205 428 269 109 119 142
205 429 268 125 137 153
205 429 269 91 110 136
205 428 270 108 115 139
205 429 270 88 103 134
204 430 268 133 142 156
204 431 268 113 127 147
205 430 268 100 119 143
205 430 269 74 98 133
205 431 268 84 107 138
205 431 269 64 90 131
206 428 270 107 115 138
206 428 271 115 119 141
206 429 270 89 104 134
206 429 271 105 115 140
207 429 271 109 118 141
206 431 269 60 84 130
206 430 270 77 96 133
206 430 271 94 108 138
206 431 270 76 95 135
207 430 271 94 108 135
207 431 271 81 97 129
202 416 272 95 115 136
202 417 272 104 122 145
203 416 272 94 114 135
203 417 272 92 114 138
203 417 273 96 116 140
202 418 272 112 127 156
202 419 272 126 138 169
203 418 272 97 116 148
203 418 273 106 122 154
203 419 272 110 124 161
203 419 273 117 131 167
202 420 272 138 150 179
202 421 272 148 160 187
203 420 272 136 149 180
203 420 273 132 146 180
203 421 272 153 165 193
203 422 272 158 170 194
204 416 272 91 111 134
204 416 273 93 111 131
204 417 273 97 116 137
204 416 274 99 115 133
204 417 274 106 122 142
205 416 274 109 121 136
205 416 275 130 135 145
205 417 274 107 121 138
205 417 275 120 132 148
204 418 274 112 127 156
204 419 274 113 129 165
205 418 275 113 129 156
205 419 275 120 135 169
206 416 275 139 142 150
205 417 276 117 132 151
205 418 276 109 128 157
205 419 276 114 132 171
206 416 276 139 142 151
206 417 276 120 133 150
207 416 276 132 139 150
207 416 277 116 129 145
207 417 276 122 134 149
207 417 277 99 119 146
206 418 276 91 116 153
206 419 276 87 110 163
206 419 277 76 100 160
207 418 277 79 102 152
207 419 277 74 96 161
204 420 273 130 145 179
204 421 272 139 154 186
204 421 273 125 143 180
204 420 274 122 140 175
204 421 274 134 152 188
205 420 274 121 139 178
205 420 275 121 138 177
205 421 274 127 145 186
205 421 275 120 138 186
204 422 272 144 157 186
204 422 273 110 132 172
204 423 272 147 156 183
205 422 273 111 130 173
205 423 272 136 146 177
205 423 273 127 138 175
205 422 274 112 129 177
206 421 275 104 124 181
206 423 273 129 136 170
206 422 274 104 118 170
206 422 275 107 125 178
206 423 274 117 127 167
207 422 275 96 114 172
207 423 274 126 134 171
207 423 275 110 123 169
206 420 276 95 118 173
206 420 277 77 103 167
206 421 276 95 117 178
207 420 277 77 99 168
207 421 276 83 107 175
207 421 277 82 104 173
207 422 276 84 107 172
205 424 272 139 146 173
205 425 272 127 135 162
206 424 272 139 147 171
206 424 273 138 145 168
206 425 272 128 137 159
206 425 273 140 149 166
207 425 273 134 143 161
207 424 274 139 146 171
207 425 274 146 154 168
206 426 272 116 121 147
206 427 272 117 121 144
207 426 272 118 124 149
207 426 273 115 124 148
207 427 272 112 117 142
207 427 273 106 114 140
206 428 272 118 121 141
207 428 272 118 123 141
207 429 272 118 125 142
207 430 272 97 107 132
207 431 272 84 96 127
197 432 256 149 149 154
197 433 256 153 150 154
197 434 256 154 152 157
197 435 256 139 141 150
198 432 256 133 139 150
198 432 257 108 121 139
198 433 256 145 146 153
198 433 257 123 132 147
198 433 258 110 121 137
199 432 258 119 127 139
199 432 259 149 148 152
199 433 258 125 130 141
199 433 259 150 148 152
198 434 257 135 142 154
198 435 257 131 139 152
198 434 258 109 122 138
198 435 258 101 117 136
199 434 258 116 124 137
199 434 259 141 142 149
199 435 259 123 131 145
199 433 260 159 154 155
199 434 260 157 153 156
199 435 260 150 151 158
196 437 256 112 120 137
197 436 256 121 128 141
197 436 257 117 126 141
197 437 256 113 122 138
197 437 257 109 120 136
196 438 256 110 118 135
196 439 256 119 125 137
197 438 256 106 116 134
197 438 257 102 113 132
197 439 256 111 119 136
197 439 257 97 109 130
197 438 258 102 114 136
197 439 258 91 105 130
198 436 257 108 122 139
198 437 257 102 116 135
198 436 258 87 107 130
198 436 259 67 92 121
198 437 258 93 110 132
198 437 259 78 99 125
199 436 259 96 112 133
199 437 259 72 94 123
198 438 258 102 114 136
198 438 259 103 117 138
198 439 258 92 107 132
198 439 259 103 117 139
199 436 260 119 129 146
199 437 260 82 103 130
198 439 260 118 129 146
199 438 260 108 121 139
199 438 261 114 126 142
199 439 260 127 136 150
199 439 261 138 142 153
195 445 256 118 129 144
195 446 256 146 149 157
195 447 256 158 155 157
196 440 256 124 129 141
196 441 256 105 115 134
196 441 257 96 108 133
197 440 257 116 125 141
197 441 257 115 124 141
197 440 258 104 115 137
197 441 258 116 127 147
196 442 256 102 115 137
196 442 257 92 107 133
196 443 256 106 118 140
196 443 257 106 120 142
197 442 257 89 105 132
197 443 257 103 118 140
197 442 258 88 106 133
197 442 259 96 112 138
197 443 258 94 112 137
197 443 259 87 107 133
198 440 258 90 105 131
198 440 259 91 106 132
198 441 259 108 120 143
198 442 259 101 115 140
198 443 259 85 104 131
198 440 260 95 110 134
198 441 260 95 111 134
199 440 260 105 118 139
199 440 261 129 136 148
199 441 260 90 107 132
199 441 261 89 106 131
198 442 260 105 118 141
198 443 260 88 105 133
199 442 260 105 119 141
199 442 261 99 115 139
199 443 260 97 113 139
199 443 261 101 116 141
199 443 262 102 118 142
196 444 256 79 96 124
196 444 257 101 114 136
196 445 256 69 92 120
196 445 257 74 95 121
197 444 257 111 125 143
197 444 258 121 132 150
197 444 259 119 131 148
197 445 258 111 123 139
197 445 259 131 138 150
196 446 256 136 141 152
196 446 257 90 109 131
196 447 256 152 152 158
196 447 257 119 130 145
197 446 258 82 103 126
197 446 259 109 121 137
197 447 258 70 97 127
197 447 259 83 103 129
198 444 259 112 125 143
198 445 259 141 145 156
198 446 259 132 137 148
198 447 259 112 123 139
198 444 260 94 112 135
198 445 260 136 142 154
199 444 260 82 102 132
199 444 261 84 104 133
199 445 261 113 126 144
199 444 262 89 108 137
198 446 260 155 154 159
198 447 260 137 140 149
199 446 261 161 160 165
199 447 260 158 154 157
199 447 261 167 163 164
200 432 260 158 154 156
200 432 261 159 153 154
200 433 260 161 154 155
200 433 261 162 155 155
201 432 261 159 153 155
201 433 261 161 154 154
201 432 262 159 153 154
201 432 263 160 154 154
201 433 262 162 155 155
201 433 263 163 157 158
200 434 260 162 155 156
200 434 261 162 156 157
200 435 260 155 153 158
200 435 261 153 152 158
200 435 262 149 151 158
201 434 262 163 158 160
201 434 263 157 155 160
201 435 262 144 147 155
201 435 263 135 140 152
200 436 260 125 134 150
200 436 261 122 132 148
200 437 261 84 107 134
200 436 262 115 128 146
200 437 262 77 101 132
201 436 262 103 118 140
201 436 263 87 104 134
201 437 263 71 92 128
200 438 261 119 129 144
200 439 261 145 147 154
200 438 262 122 131 144
200 438 263 135 138 148
200 439 262 151 151 156
200 439 263 155 152 156
201 438 263 124 129 143
201 439 263 156 154 157
201 434 264 145 147 155
201 435 264 116 126 143
202 432 264 161 157 160
202 432 265 155 154 160
202 433 264 159 155 159
202 433 265 146 149 158
203 432 265 134 142 155
203 433 265 133 141 154
203 432 266 105 122 142
203 432 267 96 115 139
203 433 266 95 115 139
203 433 267 74 101 132
202 434 264 142 145 154
202 434 265 110 122 142
202 435 264 96 110 136
202 435 265 83 101 133
203 434 266 85 109 134
203 434 267 86 110 136
203 435 266 99 118 141
203 435 267 101 121 142
201 436 264 72 88 129
201 437 264 78 92 130
201 438 264 131 134 146
201 439 264 160 156 159
202 436 264 60 80 126
202 436 265 79 97 130
202 437 264 89 101 132
202 437 265 111 121 139
203 436 266 114 129 147
203 436 267 116 132 151
203 437 266 134 143 157
203 437 267 117 134 153
202 438 264 141 142 151
202 438 265 151 151 158
202 439 264 165 162 164
202 439 265 160 159 164
203 438 266 137 145 158
203 438 267 80 105 135
203 439 266 114 128 147
203 439 267 44 76 124
204 432 267 101 118 141
204 433 267 76 102 133
204 434 267 75 102 131
204 435 267 84 108 133
204 432 268 92 112 139
204 433 268 61 89 127
205 432 268 61 90 130
205 432 269 47 76 125
205 433 268 40 69 120
205 433 269 57 84 127
204 434 268 43 74 118
204 435 268 51 81 122
205 434 268 50 77 123
205 434 269 82 102 137
205 435 268 63 87 130
205 435 269 85 105 140
206 432 269 59 82 129
206 433 269 81 101 136
206 432 270 84 102 137
206 433 270 92 111 137
207 432 271 73 92 124
207 433 271 108 122 141
206 434 269 98 116 143
206 435 269 94 114 142
206 434 270 109 126 147
206 435 270 89 110 138
207 434 271 113 128 151
207 435 271 87 107 139
204 436 267 95 117 142
204 437 267 77 104 137
204 438 267 38 74 125
204 439 267 17 56 122
204 436 268 57 89 128
204 437 268 49 83 128
205 436 268 62 87 133
205 436 269 80 101 140
205 437 268 68 92 137
205 437 269 82 104 141
204 438 268 35 70 128
204 439 268 27 61 127
205 438 268 69 92 139
205 438 269 90 111 145
205 439 268 53 80 134
205 439 269 88 109 145
206 436 269 78 101 135
206 437 269 85 107 138
206 436 270 66 91 126
206 437 270 87 109 139
207 436 271 83 104 140
207 437 271 92 114 147
206 438 269 109 128 152
206 439 269 107 127 155
206 438 270 106 127 153
206 439 270 109 130 157
207 438 271 85 109 147
207 439 270 86 112 148
207 439 271 65 93 143
200 440 262 148 149 156
200 440 263 154 153 158
200 441 262 100 114 135
200 441 263 111 123 141
201 440 263 161 158 161
201 441 263 121 130 145
200 442 262 87 108 135
200 442 263 86 108 135
200 443 262 99 117 142
200 443 263 96 117 143
201 442 263 81 105 134
201 443 263 86 111 140
200 444 262 95 115 142
200 444 263 93 114 142
200 445 262 80 104 132
200 445 263 66 96 132
201 444 263 85 110 141
201 445 263 57 91 132
200 446 262 129 140 154
200 446 263 87 112 139
200 447 262 154 158 166
200 447 263 109 128 150
201 446 263 59 95 133
201 447 263 67 98 133
201 440 264 167 163 165
201 441 264 134 141 153
201 442 264 74 102 133
201 443 264 65 97 135
202 440 264 167 164 167
202 440 265 152 155 163
202 441 264 137 145 157
202 441 265 120 134 151
203 441 265 75 100 133
203 440 266 81 104 135
203 440 267 25 60 122
203 441 266 39 73 123
202 442 264 72 100 135
202 442 265 45 81 126
202 443 264 52 87 133
202 443 265 39 75 130
203 442 265 29 68 122
203 443 265 31 67 127
203 442 266 17 56 120
203 443 266 31 64 125
201 444 264 73 103 140
201 445 264 60 94 137
201 446 264 39 79 129
201 447 264 31 72 124
202 444 264 65 95 139
202 444 265 60 89 137
202 445 264 60 89 137
202 445 265 67 93 140
203 444 265 52 81 135
203 445 265 66 91 141
203 444 266 52 80 135
203 445 266 67 91 143
202 446 264 40 73 130
202 446 265 45 73 133
202 447 264 29 64 126
203 446 265 55 81 137
203 447 265 40 69 131
203 446 266 58 84 140
203 447 266 48 76 135
204 440 267 26 59 123
204 441 267 46 72 125
204 442 266 25 53 120
204 442 267 48 67 123
204 443 266 37 64 125
204 443 267 42 67 125
205 443 267 55 79 130
204 440 268 28 64 126
204 441 268 59 84 132
205 440 268 49 80 132
205 440 269 82 106 145
205 441 268 71 95 139
205 442 268 81 101 142
205 443 268 72 94 141
206 440 269 99 121 154
206 441 269 74 102 146
206 440 270 95 120 154
206 441 270 77 107 150
207 440 270 81 107 150
207 440 271 59 90 144
207 441 270 59 92 144
207 441 271 54 87 144
206 442 268 79 103 148
206 442 269 65 93 144
206 443 268 62 87 142
206 443 269 51 79 141
207 442 269 57 87 143
207 443 269 53 83 142
207 442 270 55 88 144
207 443 270 64 91 146
204 444 266 46 74 133
204 444 267 43 71 131
204 445 266 61 86 143
205 444 267 45 74 133
205 445 267 54 81 142
204 446 266 66 89 145
204 447 266 52 79 138
205 446 267 91 109 155
205 447 267 84 104 149
205 444 268 41 73 135
205 445 268 65 90 145
205 446 268 118 134 165
205 447 268 131 145 169
206 444 268 43 74 137
206 444 269 54 80 142
206 445 268 71 95 147
206 445 269 78 101 150
207 444 269 65 91 146
207 445 269 79 104 151
207 444 270 72 98 150
207 445 270 89 113 154
206 446 268 124 140 166
206 446 269 127 142 167
206 447 268 155 165 180
207 446 269 113 132 161
207 447 269 147 159 178
208 416 277 101 118 137
208 416 278 72 99 127
208 417 278 83 107 143
209 416 278 62 91 122
209 416 279 77 100 132
209 417 278 80 104 138
209 417 279 78 103 144
208 418 278 77 102 153
208 419 278 88 107 164
209 418 279 73 99 152
209 419 279 79 104 159
210 416 279 77 99 128
208 423 275 115 128 168
208 420 277 97 115 174
208 421 277 107 127 181
209 421 277 111 132 182
208 420 278 104 121 174
208 421 278 124 142 186
209 420 278 109 126 175
209 420 279 96 120 171
209 421 278 117 138 185
209 421 279 111 131 180
208 422 276 87 111 172
208 422 277 96 119 176
208 423 276 99 116 168
209 422 277 96 119 174
209 423 276 96 112 164
209 423 277 92 108 165
209 422 278 96 119 175
210 420 279 98 119 171
210 421 279 102 123 175
211 421 279 111 128 174
210 423 277 102 114 163
210 422 278 86 107 169
210 422 279 90 111 170
210 423 278 90 105 163
211 422 279 115 130 176
211 423 278 99 112 163
211 423 279 106 119 166
212 422 279 130 143 181
212 423 279 115 128 168
209 417 280 57 91 143
209 418 280 57 91 149
209 419 280 60 92 153
210 416 280 84 105 135
210 417 280 64 93 140
211 416 280 90 110 133
211 416 281 89 109 133
211 417 281 76 101 141
210 418 280 55 87 150
210 419 280 69 97 158
211 418 281 83 107 157
211 419 281 74 101 158
210 420 280 89 112 165
210 421 280 106 125 173
211 420 280 80 105 159
211 420 281 67 96 153
211 421 280 125 141 180
212 416 281 97 116 134
212 417 281 95 117 141
212 416 282 107 124 142
212 417 282 106 127 154
213 416 282 109 126 144
213 416 283 98 122 148
213 417 282 114 134 158
213 417 283 95 122 155
212 419 281 93 117 165
212 418 282 105 127 167
212 419 282 108 128 174
213 418 282 104 127 167
213 418 283 78 106 158
213 419 282 93 113 169
213 419 283 74 98 161
214 416 283 82 110 141
214 417 283 71 103 147
215 416 283 79 106 140
214 418 283 60 89 153
214 419 283 75 94 161
214 417 284 67 96 148
215 416 284 77 102 142
215 417 284 68 92 144
214 418 284 72 94 156
214 419 284 82 97 161
215 418 284 94 108 160
215 419 284 107 119 170
212 420 281 87 108 162
212 421 280 152 164 197
212 421 281 135 147 187
213 421 281 121 131 180
212 420 282 95 115 168
213 420 282 82 102 164
213 420 283 78 96 163
213 421 282 96 110 169
212 422 280 137 150 186
212 423 280 121 134 172
213 422 280 126 140 178
213 422 281 121 133 178
213 423 280 115 127 169
213 423 281 112 123 170
214 420 283 103 116 174
214 421 282 116 127 179
214 421 283 117 129 181
215 420 283 121 132 182
215 421 283 121 133 183
214 422 281 108 119 171
214 423 281 103 114 167
215 423 281 104 114 167
214 422 282 110 121 174
215 422 282 111 122 176
215 422 283 115 127 179
215 423 282 105 116 171
215 420 284 117 128 177
215 421 284 122 134 182
208 424 275 133 144 169
208 425 274 139 147 163
208 425 275 140 150 165
209 424 275 127 139 164
209 425 275 129 139 157
208 426 273 108 118 143
208 427 273 102 112 139
208 426 274 117 126 148
208 427 274 106 116 141
209 426 275 120 129 150
209 427 274 111 120 144
209 427 275 116 126 148
210 427 275 118 128 150
209 424 276 120 131 163
209 424 277 112 123 162
209 425 276 125 134 156
210 424 277 116 124 160
210 425 276 120 127 153
210 425 277 120 127 155
211 424 277 121 128 160
211 425 277 118 124 153
211 424 278 117 125 163
211 425 278 118 125 157
210 426 276 118 126 150
210 427 276 114 124 151
211 426 277 117 123 150
211 427 276 108 118 149
211 427 277 114 122 150
208 428 273 116 121 142
208 429 272 126 130 143
208 429 273 135 138 149
209 429 273 146 147 154
208 428 274 113 122 144
209 428 274 123 131 148
209 428 275 127 135 153
209 429 274 154 155 162
209 429 275 144 149 161
208 430 272 115 120 138
208 430 273 138 141 150
208 431 272 107 116 137
209 430 273 152 152 159
209 431 273 132 137 151
209 430 274 167 165 169
210 428 275 127 136 155
210 429 275 155 158 167
210 430 274 174 170 174
210 430 275 174 172 176
210 431 274 151 154 162
210 431 275 162 163 170
211 430 275 174 172 178
211 431 275 159 160 169
210 428 276 119 128 153
210 429 276 132 139 158
211 428 276 108 119 149
211 428 277 116 127 153
211 429 276 125 135 155
211 429 277 114 127 152
211 430 276 152 155 166
211 431 276 151 152 165
212 424 278 118 127 163
212 424 279 116 126 164
212 425 278 116 123 156
213 424 279 111 121 161
213 425 278 112 121 155
213 425 279 111 121 158
212 426 277 116 122 150
212 427 277 122 131 155
212 426 278 115 123 152
212 427 278 126 135 158
213 426 278 110 120 152
213 426 279 100 113 153
213 427 278 112 126 157
213 427 279 84 102 147
214 426 279 96 110 154
214 427 279 84 101 146
212 428 277 133 143 165
212 429 277 121 132 156
213 429 277 116 128 156
213 428 278 109 127 156
213 428 279 83 103 144
213 429 278 110 128 155
212 430 276 130 137 156
212 430 277 120 127 153
212 431 276 138 141 158
212 431 277 129 132 154
213 430 277 115 123 153
213 431 277 130 132 155
213 430 278 113 124 155
213 431 278 133 135 157
214 428 279 103 117 151
214 429 278 123 138 163
214 429 279 126 139 162
215 428 279 118 128 159
215 429 279 131 140 166
214 430 278 117 130 159
214 430 279 116 130 159
214 431 278 134 140 159
215 430 279 113 125 158
215 431 279 132 140 162
213 424 280 107 117 162
213 425 280 107 118 160
214 424 280 101 112 161
214 424 281 100 110 161
214 425 280 94 106 154
215 424 281 101 111 162
215 425 280 90 103 152
215 425 281 94 105 154
215 424 282 102 112 165
214 426 280 96 110 155
215 426 280 103 115 156
215 427 280 103 115 154
215 428 280 120 128 159
215 429 280 129 136 163
216 416 284 75 97 136
216 416 285 77 97 137
216 417 284 82 99 145
216 417 285 98 112 153
217 416 285 95 109 141
217 417 285 103 117 151
217 417 286 109 122 155
216 418 285 111 121 164
216 419 284 117 126 173
216 419 285 119 128 173
217 418 285 113 124 164
217 419 285 120 129 173
217 418 286 114 127 165
217 419 286 119 129 173
218 416 285 97 112 140
218 416 286 101 116 144
218 417 286 109 122 154
218 417 287 111 122 158
219 416 286 99 116 143
219 416 287 101 117 146
219 417 287 105 118 155
218 418 286 115 126 165
218 418 287 111 121 165
218 419 286 113 124 171
218 419 287 112 122 170
219 418 287 103 115 164
219 419 287 98 111 168
216 421 283 117 129 179
216 422 283 112 124 176
216 423 282 103 114 168
216 423 283 107 118 171
217 422 283 116 126 177
217 423 283 111 121 171
218 423 283 111 121 167
216 420 284 119 129 177
216 420 285 122 131 179
216 421 284 119 130 180
217 420 285 123 131 179
217 421 284 121 131 182
217 421 285 121 131 182
217 422 284 117 127 178
218 420 285 117 127 179
218 421 285 102 115 176
219 421 285 84 102 169
218 420 286 108 120 175
218 421 286 91 107 172
219 420 286 85 103 169
219 420 287 80 98 167
219 421 286 80 100 168
218 422 284 95 108 169
218 422 285 84 98 167
218 423 284 104 115 165
219 422 285 87 104 167
219 423 284 101 114 163
219 423 285 85 101 158
220 416 287 99 115 145
220 417 287 99 114 152
220 418 287 96 110 162
220 419 287 78 100 162
220 420 287 77 100 167
220 421 286 96 117 175
220 421 287 90 113 173
221 420 287 106 128 177
221 421 286 122 141 185
221 421 287 121 141 185
220 422 285 102 120 172
220 423 284 101 112 160
220 423 285 85 103 156
221 422 285 104 123 171
221 423 285 72 95 150
220 422 286 112 130 178
221 422 286 111 131 177
222 420 287 132 152 187
222 421 286 131 149 188
222 421 287 142 159 193
223 421 287 129 142 183
222 423 285 73 97 158
222 422 286 102 121 175
222 423 286 69 93 162
223 422 286 81 101 169
223 422 287 98 115 173
223 423 286 65 90 164
216 430 279 110 119 156
216 431 279 132 139 164
216 425 281 99 112 157
216 424 282 100 111 163
216 425 282 100 112 159
217 424 282 108 118 164
217 424 283 113 123 166
217 425 282 108 119 160
216 426 281 110 119 158
216 427 280 117 124 158
216 427 281 118 125 158
217 426 281 111 120 159
217 427 281 116 124 158
217 426 282 113 123 160
218 424 283 123 134 170
218 425 282 113 124 162
218 425 283 121 134 167
219 424 283 135 147 175
219 425 283 123 137 170
218 427 281 122 128 162
218 426 282 111 122 161
218 427 282 115 123 162
219 426 282 96 112 160
219 426 283 96 114 162
219 427 282 94 109 160
218 424 284 129 141 172
219 424 284 135 146 176
216 428 280 121 126 157
216 429 280 121 127 157
217 428 281 120 126 157
217 429 280 123 128 158
217 429 281 124 130 159
216 430 280 116 124 158
216 431 280 123 131 161
217 430 280 127 132 162
217 431 280 130 136 164
218 428 281 124 131 162
218 429 281 128 135 162
219 429 281 136 144 168
218 428 282 124 133 166
219 428 282 110 123 164
219 429 282 129 139 169
218 430 280 131 137 164
218 430 281 133 139 163
218 431 280 133 140 167
218 431 281 139 146 169
219 430 281 141 148 167
219 431 281 149 157 175
220 425 283 105 121 162
221 425 283 98 115 159
220 426 283 85 105 157
220 427 282 88 106 160
220 427 283 83 103 158
221 426 283 94 113 160
221 427 283 87 108 160
222 426 283 109 126 166
222 427 283 102 120 165
223 427 283 95 114 165
220 424 284 120 133 168
220 425 284 122 134 170
221 424 284 92 109 154
221 424 285 72 91 146
221 425 284 108 123 162
222 424 285 81 103 156
222 425 284 106 123 162
222 425 285 89 111 156
223 424 285 71 97 157
223 425 284 104 122 164
223 425 285 88 111 158
223 424 286 63 91 158
222 426 284 119 134 170
223 426 284 109 126 168
223 427 284 105 122 167
220 428 282 91 109 161
220 429 282 119 132 166
221 428 282 79 102 159
221 428 283 85 106 161
221 429 282 96 113 160
220 430 281 153 160 176
220 431 281 164 170 183
221 430 281 163 170 184
221 431 281 169 175 186
220 430 282 154 163 180
221 430 282 147 156 177
222 428 283 88 109 163
222 429 282 89 104 160
222 429 283 83 101 162
223 428 283 85 105 163
223 429 282 97 108 165
223 429 283 83 100 162
222 431 281 169 175 188
222 430 282 120 131 165
222 431 282 148 157 176
223 430 282 101 111 160
223 431 282 123 133 164
208 435 271 101 117 147
208 436 271 113 128 155
208 437 271 115 132 159
208 438 271 100 121 156
208 439 271 74 100 148
208 440 271 54 85 144
208 441 271 48 82 144
208 442 271 63 93 150
208 443 270 69 96 149
208 443 271 67 95 149
209 442 271 62 91 149
209 443 271 60 90 147
208 444 270 71 97 151
208 444 271 68 95 150
208 445 270 73 100 152
208 445 271 60 89 149
209 444 271 54 85 147
209 445 271 60 88 149
208 446 270 75 103 150
208 447 270 99 120 157
209 446 271 58 86 147
209 447 271 49 79 144
208 432 272 108 119 140
208 433 272 117 130 151
209 432 272 116 128 150
209 432 273 96 111 140
209 433 272 106 122 150
209 433 273 90 107 144
208 434 272 100 117 146
208 435 272 106 122 151
209 434 272 96 113 147
209 434 273 95 111 147
209 435 272 109 124 153
209 435 273 106 123 151
210 433 273 83 103 143
210 432 274 114 128 152
210 433 274 95 111 148
211 432 275 128 134 156
211 433 275 106 116 149
210 434 273 90 107 144
210 434 274 100 117 151
210 435 274 121 136 160
211 434 275 99 115 149
211 435 274 124 138 163
211 435 275 114 130 159
211 432 276 135 137 157
208 436 272 118 133 157
208 437 272 122 139 162
209 436 272 123 139 161
209 436 273 108 127 152
209 437 272 118 137 162
209 437 273 100 121 153
208 438 272 110 130 160
208 439 272 80 105 150
209 438 272 101 125 157
209 438 273 88 112 152
209 439 272 72 102 150
209 439 273 76 103 150
210 437 273 85 106 149
210 436 274 114 131 157
210 437 274 97 116 153
211 436 274 125 140 165
211 436 275 124 140 165
211 437 274 104 122 156
211 437 275 106 125 155
210 438 273 91 110 151
210 439 273 108 126 161
210 438 274 107 123 157
210 439 274 128 144 171
211 438 274 127 142 167
211 438 275 126 141 165
211 439 274 136 151 173
212 433 275 113 123 150
212 434 275 96 113 145
212 435 275 103 121 152
212 432 276 133 134 156
212 433 276 119 126 153
213 432 277 150 149 162
213 433 276 130 135 158
213 433 277 148 151 165
213 432 278 153 152 163
212 434 276 105 122 150
212 435 276 91 112 148
213 434 276 122 133 159
213 434 277 137 146 166
213 435 276 90 108 149
213 435 277 106 121 155
214 433 277 155 159 170
214 432 278 167 165 172
214 433 278 177 175 180
215 432 278 171 170 176
215 432 279 169 169 177
215 433 278 183 180 184
215 433 279 189 184 186
214 434 277 139 148 165
214 435 277 111 123 152
214 434 278 134 143 163
215 434 278 149 154 170
215 435 278 131 138 160
212 436 275 115 131 160
212 437 275 103 122 154
212 438 275 133 147 171
212 439 275 113 132 162
213 438 275 118 135 163
213 439 275 95 115 154
212 436 276 91 112 150
213 436 276 85 104 149
213 436 277 103 117 157
213 437 276 114 129 161
213 438 276 118 134 162
213 439 276 105 122 157
214 436 277 108 121 155
214 437 277 121 133 160
215 436 277 108 120 151
215 437 277 113 126 153
215 436 278 117 127 156
215 437 278 113 125 154
214 438 276 117 134 159
214 438 277 121 137 161
214 439 276 114 132 160
215 438 277 119 134 160
215 439 276 122 138 166
215 439 277 121 137 165
208 440 272 52 84 144
208 441 272 38 75 143
209 440 272 47 81 143
209 440 273 70 98 150
209 441 272 47 79 145
209 441 273 55 86 146
209 442 272 58 88 147
209 443 272 59 89 147
210 440 273 102 124 162
210 441 273 65 92 147
210 440 274 109 130 164
211 440 274 105 126 159
211 441 274 82 107 149
210 442 273 77 100 149
210 443 272 81 106 155
210 443 273 100 120 160
211 442 273 114 131 163
211 443 273 122 141 172
211 442 274 132 148 174
211 443 274 136 153 178
209 444 272 50 84 146
209 445 272 59 89 148
210 444 272 63 96 150
210 444 273 92 117 160
210 445 272 85 112 159
211 444 273 67 102 150
211 445 272 102 125 166
211 445 273 75 106 155
210 446 272 88 108 157
210 447 272 39 70 140
211 446 272 68 92 146
211 446 273 78 104 153
211 447 272 27 55 132
212 440 274 84 109 149
212 440 275 87 111 151
212 441 274 103 125 158
212 441 275 85 109 150
213 440 275 80 103 148
213 441 275 91 112 152
212 442 274 135 153 177
212 443 274 102 128 163
213 442 274 114 137 168
213 442 275 100 124 161
213 443 274 74 103 155
214 441 275 88 110 154
215 441 275 82 102 157
214 442 275 81 104 158
214 443 274 42 65 146
214 443 275 56 75 148
215 442 275 67 87 151
215 443 275 75 88 147
213 440 276 86 104 149
214 440 276 95 116 152
214 441 276 93 114 155
215 440 276 113 131 163
215 441 276 89 109 157
212 444 273 44 84 145
212 445 273 63 91 151
213 445 273 49 71 146
212 444 274 50 86 146
213 444 274 34 64 143
213 445 274 28 51 141
212 446 273 47 74 140
212 447 272 14 44 131
212 447 273 20 45 129
213 446 273 39 65 138
213 447 273 50 71 137
214 444 274 40 51 141
214 445 274 65 72 142
215 444 274 106 111 152
215 444 275 95 101 151
215 445 274 136 139 164
214 446 273 92 103 147
214 447 273 132 141 164
215 447 273 189 187 190
214 446 274 105 113 152
215 446 274 169 170 180
215 447 274 183 183 188
216 432 279 161 164 174
216 433 279 183 180 183
217 432 279 154 158 171
217 433 279 167 167 177
216 434 278 149 153 169
216 434 279 160 161 172
216 435 278 131 137 162
217 434 279 160 161 172
217 435 279 131 136 163
218 433 279 160 161 175
218 434 279 154 154 171
218 435 279 139 142 168
219 434 279 151 149 171
219 435 279 145 145 170
216 437 277 100 117 148
216 436 278 110 119 155
216 437 278 97 111 148
217 436 278 105 113 153
217 436 279 118 123 159
217 437 278 89 102 148
216 438 277 97 116 150
216 439 277 102 121 158
217 438 277 94 113 152
217 439 277 85 107 152
217 438 278 91 108 152
218 436 279 127 130 166
218 437 278 100 112 160
218 437 279 108 117 164
219 436 279 127 131 167
219 437 279 99 107 160
218 439 277 67 92 147
218 438 278 82 102 155
218 439 278 77 99 152
219 438 278 107 119 164
219 439 278 116 130 168
220 435 279 144 143 169
220 436 279 133 134 169
220 437 279 112 118 164
221 436 279 128 128 169
221 437 279 128 134 170
220 438 278 138 146 176
220 438 279 140 148 177
220 439 278 156 164 185
221 438 279 160 169 186
221 439 278 179 185 197
221 439 279 181 187 198
222 437 279 141 146 177
223 437 279 143 148 177
222 438 279 167 173 190
222 439 278 177 182 196
222 439 279 167 173 191
223 438 279 146 153 182
223 439 279 135 144 179
217 432 280 140 145 168
218 432 280 128 135 165
218 433 280 140 143 168
219 432 280 119 128 161
219 432 281 134 143 169
219 433 280 125 129 164
218 434 280 150 149 171
219 434 280 149 146 172
220 432 280 122 132 163
220 432 281 149 158 178
220 433 280 121 127 163
221 432 281 165 171 186
221 433 280 126 132 167
221 433 281 140 148 173
220 434 280 145 143 171
220 435 280 148 146 170
221 434 280 138 139 169
221 435 280 145 142 168
222 432 281 162 168 182
222 433 280 125 132 167
222 433 281 143 150 176
223 432 281 153 160 178
223 433 281 143 149 176
223 432 282 148 154 176
222 434 280 133 135 171
222 435 280 144 142 171
223 434 280 130 133 172
223 434 281 125 130 170
223 435 280 140 139 173
221 436 280 135 134 169
222 436 280 140 137 171
222 437 280 135 135 171
223 436 280 145 140 172
223 437 280 138 137 172
216 442 275 76 95 151
216 443 275 119 131 165
217 443 275 136 153 177
218 443 275 125 145 174
216 440 276 92 110 154
216 440 277 102 119 159
216 441 276 67 87 147
217 440 277 72 92 147
217 441 276 55 73 138
217 441 277 49 69 137
216 442 276 56 80 142
217 442 276 86 108 151
218 440 277 72 94 150
218 441 276 81 99 151
218 441 277 77 95 151
219 440 277 123 138 173
219 441 277 100 118 160
219 440 278 124 137 172
218 442 276 104 125 161
218 443 276 116 139 169
219 442 276 128 142 172
219 443 276 138 152 176
216 444 275 150 159 179
216 445 274 170 173 184
216 445 275 167 174 187
217 444 275 151 165 185
217 445 274 148 155 176
217 445 275 137 150 174
216 446 274 189 188 193
216 447 274 199 193 194
217 446 274 170 171 186
217 447 274 189 186 192
218 444 275 115 136 171
218 445 274 106 118 163
218 445 275 81 100 160
219 444 275 109 130 163
219 445 275 79 100 157
218 446 274 108 116 168
218 447 274 142 147 176
219 446 274 75 88 161
219 446 275 73 87 158
219 447 274 92 104 164
219 444 276 137 150 173
220 441 277 118 134 162
221 441 277 145 156 174
220 440 278 159 168 190
221 440 278 169 177 193
221 441 278 135 150 171
220 442 276 169 174 190
220 442 277 149 158 178
220 443 276 177 181 193
221 442 277 185 186 194
221 443 276 199 194 198
222 441 277 179 182 194
222 440 278 139 150 177
222 441 278 138 150 174
223 440 278 95 108 163
223 440 279 109 121 168
223 441 278 135 143 178
222 442 277 197 193 197
222 443 276 203 195 195
222 443 277 204 195 195
223 442 277 194 191 198
223 443 277 204 195 195
220 444 275 149 157 177
220 445 275 146 152 177
221 445 275 190 188 194
220 446 275 117 126 168
220 447 274 89 103 163
220 447 275 96 109 164
221 446 275 173 175 189
221 447 274 120 131 172
221 447 275 149 156 182
222 446 275 202 195 197
222 447 275 191 189 197
223 446 275 207 197 195
223 447 275 207 200 200
220 444 276 175 177 188
221 444 276 198 192 195
221 445 276 199 193 196
222 444 276 205 195 194
222 445 276 206 196 195
223 444 276 206 195 193
223 445 276 206 196 194
222 446 276 207 197 196
223 446 276 207 196 195
220 417 288 98 113 155
221 416 288 90 106 142
221 417 288 95 111 152
220 418 288 90 106 160
221 418 288 94 112 161
221 419 288 96 117 168
222 416 288 61 82 129
222 416 289 44 72 126
222 417 288 87 104 149
222 417 289 85 101 149
223 416 289 51 81 132
223 417 289 76 96 147
222 418 288 114 129 171
222 418 289 113 128 169
222 419 288 116 135 174
223 418 289 112 126 169
223 419 288 125 141 176
223 419 289 122 136 173
222 420 288 138 155 188
223 420 288 152 165 193
223 421 288 154 166 196
224 384 290 61 85 140
224 384 291 60 84 140
224 385 290 56 81 135
224 385 291 56 81 135
225 384 291 49 73 131
225 385 291 63 86 135
224 386 289 75 97 138
224 387 289 90 111 142
224 386 290 75 97 140
224 387 290 82 104 140
225 386 291 72 94 138
225 387 290 65 91 133
225 387 291 63 88 132
226 386 291 60 86 131
226 387 291 55 82 128
225 384 292 52 76 132
225 385 292 52 76 128
226 384 292 68 91 136
226 384 293 75 97 139
226 385 292 52 76 125
226 385 293 52 75 124
227 384 293 75 95 138
227 385 293 75 91 133
227 384 294 79 98 141
226 386 292 62 84 129
226 387 292 71 92 132
227 386 293 83 99 136
227 387 293 88 106 140
224 388 289 90 112 139
224 389 289 49 80 117
224 388 290 78 102 135
224 389 290 42 74 118
225 388 290 61 88 129
225 388 291 51 77 125
225 389 290 53 80 122
225 389 291 63 86 128
224 390 289 28 56 106
224 391 289 36 65 112
224 390 290 43 68 113
224 391 290 61 80 121
225 390 290 64 84 124
225 390 291 74 93 132
225 391 290 73 91 130
225 391 291 80 98 136
226 388 291 61 85 129
226 389 291 75 96 134
226 390 291 81 101 137
226 391 291 83 102 138
226 388 292 80 100 138
226 389 292 81 101 139
227 388 292 85 105 140
227 388 293 86 105 142
227 389 292 82 102 141
227 389 293 79 99 141
226 390 292 82 102 140
226 391 292 80 101 139
227 390 292 78 100 139
227 390 293 73 96 139
227 391 292 73 96 138
227 391 293 69 93 139
228 384 294 85 101 143
228 384 295 88 103 145
228 385 294 89 105 142
229 384 295 90 104 145
229 385 294 89 105 144
229 385 295 85 103 143
228 386 293 90 106 141
228 387 293 89 107 142
228 386 294 89 105 141
228 387 294 84 103 140
229 386 294 83 102 141
229 386 295 78 98 141
229 387 294 78 98 139
229 387 295 72 94 139
230 384 295 85 101 144
230 385 295 80 98 142
230 386 295 74 95 141
230 387 295 68 91 141
228 388 293 83 103 142
228 389 293 73 95 140
228 388 294 78 99 140
228 389 294 72 94 140
229 388 294 71 94 140
229 388 295 69 92 139
229 389 294 68 92 142
229 389 295 69 93 143
228 390 293 68 94 141
228 391 293 68 93 141
229 390 294 70 94 144
229 391 294 71 95 145
230 388 295 68 92 142
230 389 295 72 95 144
230 390 295 74 96 145
230 391 295 77 98 146
230 384 296 85 100 146
230 385 296 70 91 141
231 384 297 74 91 144
231 385 296 67 90 142
231 385 297 70 91 143
230 386 296 68 91 142
230 387 296 69 92 144
231 386 296 71 92 144
231 386 297 76 97 145
231 387 296 75 95 145
231 387 297 83 102 147
230 388 296 76 96 146
230 389 296 80 100 147
231 388 296 82 101 147
231 388 297 89 106 149
231 389 296 89 106 149
231 389 297 96 111 151
230 390 296 81 101 147
231 390 296 91 108 149
231 391 296 92 109 150
224 392 289 64 85 126
224 393 289 78 95 132
224 392 290 76 94 131
224 393 290 86 102 137
225 392 290 81 99 135
225 392 291 84 102 138
225 393 290 86 104 139
225 393 291 85 104 140
224 394 289 86 102 136
224 395 289 94 109 142
224 394 290 90 106 140
224 395 290 94 110 143
225 394 290 91 109 143
225 394 291 84 105 142
225 395 290 93 111 146
225 395 291 82 103 143
226 392 291 81 101 138
226 393 291 80 101 139
226 394 291 78 100 140
226 395 291 75 98 141
226 392 292 73 96 137
226 393 292 72 95 138
227 392 292 69 93 137
227 392 293 65 91 138
227 393 292 68 92 138
227 393 293 67 91 140
226 394 292 71 94 139
226 395 292 70 93 139
227 394 292 68 91 139
227 394 293 68 92 141
227 395 292 69 91 139
227 395 293 73 94 141
224 396 289 96 110 143
224 397 289 95 110 143
224 396 290 93 110 145
224 397 290 87 106 145
225 396 290 85 105 143
225 396 291 78 100 142
225 397 290 76 98 142
225 397 291 68 93 139
224 398 289 93 110 145
224 399 289 87 105 144
224 398 290 83 103 144
224 399 290 78 99 142
225 398 290 73 95 141
225 398 291 68 92 140
225 399 290 70 93 141
225 399 291 68 91 140
226 396 291 70 95 140
226 397 291 65 90 139
226 398 291 66 91 139
226 399 291 69 92 140
226 396 292 68 91 139
226 397 292 65 89 138
227 396 292 71 92 140
227 396 293 79 98 143
227 397 292 75 95 141
227 397 293 84 101 145
226 398 292 69 91 139
226 399 292 77 97 141
227 398 292 82 100 144
227 398 293 92 108 148
227 399 292 90 107 147
227 399 293 100 114 152
228 392 293 69 93 143
228 393 293 70 94 143
229 392 294 73 96 146
229 393 294 76 99 146
228 394 293 74 97 144
228 395 293 80 101 146
229 394 294 82 103 148
229 395 294 91 108 150
230 392 294 81 101 148
230 392 295 86 105 149
230 393 294 85 105 149
230 393 295 92 110 151
230 394 294 93 110 152
230 394 295 96 112 153
230 395 294 98 113 153
230 395 295 96 112 153
231 394 295 90 108 151
231 395 295 86 105 149
228 396 293 90 108 149
228 397 293 98 113 152
229 396 294 98 114 153
229 397 294 102 116 155
228 398 293 102 115 153
228 399 293 103 116 155
229 398 293 100 114 154
229 399 293 97 111 154
229 398 294 94 109 151
229 399 294 89 105 150
230 396 294 95 112 152
230 396 295 88 106 149
230 397 294 90 107 150
230 397 295 76 98 144
231 396 295 70 93 143
231 397 295 58 85 139
230 398 294 79 99 147
230 398 295 70 93 143
230 399 294 71 94 144
231 398 295 66 92 142
231 399 295 82 107 150
231 392 296 93 109 151
231 393 296 91 108 150
231 394 296 87 106 148
231 395 296 73 96 144
231 396 296 63 88 141
232 384 297 74 92 144
232 385 297 79 97 145
232 384 298 81 97 146
232 385 298 87 103 148
233 384 298 91 106 149
233 384 299 93 107 149
233 385 298 97 110 150
232 386 297 87 104 148
232 387 297 94 109 149
232 386 298 94 109 149
232 387 298 99 114 151
233 386 298 98 113 150
233 387 298 101 114 151
234 384 299 99 112 150
234 385 299 94 109 148
234 386 299 91 107 147
234 387 299 86 102 145
235 387 299 85 105 147
234 384 300 100 112 150
235 384 300 85 101 145
235 385 300 80 99 144
235 386 300 85 106 147
235 387 300 94 114 152
232 388 297 99 114 151
232 389 297 100 115 152
233 388 298 97 111 150
233 389 298 88 104 147
232 390 297 97 113 151
232 391 297 93 109 150
233 390 297 84 102 145
233 391 297 75 95 143
233 390 298 76 96 143
233 391 298 61 86 138
234 388 298 81 97 144
234 388 299 69 89 139
234 389 298 68 89 140
234 389 299 65 89 140
235 388 299 68 93 139
235 389 299 66 93 141
234 390 298 58 86 138
234 390 299 77 101 147
234 391 298 65 96 142
235 390 299 85 108 151
235 391 299 86 110 150
235 388 300 87 109 148
236 384 300 71 93 142
236 384 301 59 80 136
236 385 300 83 105 148
236 385 301 86 110 152
237 384 301 48 75 136
237 385 301 77 104 150
237 384 302 38 68 132
236 386 300 101 123 158
236 386 301 101 123 159
236 387 300 106 127 161
237 386 301 89 116 154
237 387 301 89 116 154
238 385 301 70 98 148
238 384 302 57 86 141
238 385 302 66 95 146
239 384 303 69 95 142
239 385 302 64 93 144
239 385 303 61 90 142
238 386 301 77 106 149
238 387 301 89 115 154
238 386 302 83 109 152
238 387 302 94 118 156
239 386 302 92 115 156
239 387 302 96 118 159
236 390 299 70 97 147
236 391 299 68 96 146
237 391 299 46 79 141
236 388 300 84 109 150
236 389 300 45 81 135
237 388 300 75 103 150
237 388 301 77 105 150
237 389 300 53 86 143
236 390 300 55 87 142
237 390 300 53 84 145
237 391 300 48 78 143
238 388 301 80 106 154
238 389 300 59 89 148
238 389 301 57 87 149
239 388 301 74 99 154
239 389 301 49 80 148
239 388 302 80 105 155
238 390 300 42 76 144
238 391 300 37 70 143
239 390 301 29 68 143
239 391 300 40 73 148
232 397 295 61 90 143
232 398 295 79 103 149
232 399 295 95 118 158
233 399 295 99 122 161
232 392 296 88 104 147
232 392 297 84 101 146
232 393 296 76 96 141
232 393 297 61 85 133
233 392 297 60 84 136
233 393 297 45 77 128
233 392 298 58 84 135
232 394 296 55 80 131
232 395 296 51 80 133
233 394 297 34 68 122
233 395 296 50 77 132
233 395 297 48 77 130
234 393 297 63 95 140
234 392 298 79 106 147
234 393 298 81 109 150
235 392 298 79 107 148
235 392 299 72 101 143
235 393 298 72 103 149
234 394 297 64 94 140
234 395 297 63 92 143
235 395 297 48 82 146
234 394 298 74 104 149
235 394 298 68 98 149
235 395 298 50 83 146
232 396 296 60 87 141
232 397 296 68 95 146
233 396 296 73 97 148
233 396 297 67 91 144
233 397 296 83 107 153
232 398 296 79 104 149
233 398 296 92 116 156
233 399 296 101 126 163
234 396 296 66 93 149
234 396 297 59 90 147
234 397 296 73 102 152
234 397 297 71 102 153
235 396 297 50 85 147
235 397 297 89 117 159
234 398 296 83 115 157
234 399 296 99 127 164
235 398 296 76 113 157
235 398 297 94 124 163
235 399 296 84 116 160
236 392 299 43 82 137
236 393 298 61 93 148
236 393 299 54 87 145
237 392 299 44 79 141
237 393 299 65 94 152
236 394 298 63 91 150
236 395 298 49 80 148
237 394 298 68 94 154
237 394 299 72 98 156
237 395 298 64 90 155
238 392 299 68 95 153
238 393 299 86 112 161
239 393 299 102 127 165
238 394 299 80 107 159
238 395 298 67 93 156
238 395 299 73 100 159
239 394 299 98 125 164
239 395 299 79 108 159
238 392 300 64 91 152
239 392 300 74 101 158
239 393 300 104 129 166
236 396 297 83 108 158
236 397 297 115 138 169
237 397 297 132 151 178
236 396 298 50 82 150
237 396 298 66 95 155
237 397 298 121 141 173
236 398 297 114 139 169
236 399 296 64 99 151
236 399 297 79 112 155
237 398 297 131 152 178
237 399 297 67 102 153
238 396 298 57 88 152
238 397 298 96 120 163
239 396 298 36 76 147
239 396 299 55 89 152
239 397 298 68 94 154
238 398 297 130 150 180
238 399 297 89 118 164
239 398 297 104 125 167
239 399 297 93 117 165
238 398 298 108 129 168
239 398 298 96 117 163
224 400 289 80 99 142
224 401 289 75 95 141
224 400 290 73 95 141
224 401 290 71 93 140
225 400 290 69 93 140
225 400 291 70 92 139
225 401 290 71 93 140
225 401 291 76 97 140
224 402 289 71 93 140
224 403 289 74 95 142
224 402 290 72 94 140
224 403 290 77 98 142
225 402 290 75 96 140
225 402 291 81 100 140
225 403 290 82 101 142
225 403 291 87 104 141
226 400 291 74 95 139
226 401 291 85 103 142
226 402 291 91 106 142
226 403 291 90 106 141
226 400 292 84 103 143
226 401 292 93 109 145
227 400 292 95 111 149
227 400 293 98 114 153
227 401 292 94 110 148
227 401 293 95 111 149
226 402 292 94 110 145
226 403 292 91 106 143
227 402 292 96 112 149
227 403 292 93 109 149
224 404 289 83 102 145
224 405 289 90 108 145
224 404 290 87 105 144
224 405 290 94 110 144
225 404 290 90 107 143
225 404 291 93 109 143
225 405 290 97 112 144
224 406 289 91 109 143
224 407 289 93 111 143
224 406 290 96 112 143
224 407 290 97 113 142
225 406 290 97 112 142
225 407 290 94 110 140
226 404 291 89 105 141
226 405 291 91 107 142
226 406 291 91 108 142
226 407 291 87 107 142
227 406 291 91 110 147
227 407 291 99 119 152
226 404 292 84 100 140
227 404 292 75 93 139
227 405 292 68 90 137
227 406 292 86 106 146
227 407 292 101 121 154
228 400 293 100 115 155
228 401 293 97 115 154
229 400 293 92 109 154
229 401 293 88 110 154
229 400 294 86 104 152
228 402 293 92 113 153
228 403 293 86 108 152
229 402 293 87 113 154
229 403 293 89 115 157
230 400 294 72 97 149
230 401 294 88 113 159
231 400 294 79 105 153
231 400 295 87 112 156
231 401 294 75 101 155
230 402 293 93 120 160
230 403 293 90 118 160
230 402 294 87 115 159
230 403 294 81 110 156
231 402 294 73 100 154
231 403 294 83 108 156
228 404 292 54 82 139
228 404 293 65 93 147
228 405 292 42 73 134
229 404 293 76 104 154
229 405 292 48 82 143
229 405 293 61 92 149
228 406 292 76 99 146
228 407 292 107 126 158
229 406 292 72 97 149
229 407 292 102 121 156
230 404 293 84 113 158
230 405 293 73 101 155
231 404 293 94 118 162
231 405 293 86 110 160
231 404 294 95 118 161
230 406 292 73 97 151
230 406 293 68 94 152
230 407 292 91 111 155
231 406 293 75 100 158
231 407 292 102 120 161
231 407 293 90 110 161
224 408 289 96 111 142
224 409 289 92 109 140
224 408 290 98 113 141
225 408 290 90 107 139
225 409 290 83 102 137
224 410 289 89 105 137
224 411 289 81 98 134
225 410 290 74 94 133
225 411 290 60 82 126
226 408 290 79 99 138
226 408 291 79 102 142
226 409 290 70 95 135
226 409 291 71 97 140
227 408 291 96 118 152
227 409 291 89 114 151
226 410 290 71 93 135
226 410 291 78 102 144
226 411 290 67 90 135
227 410 291 87 111 150
227 411 291 75 100 145
224 412 289 78 97 132
224 413 289 90 111 139
225 412 290 68 89 128
225 413 290 105 123 149
224 414 289 102 124 149
224 415 289 89 115 149
224 415 290 108 130 157
225 414 290 114 135 158
225 415 290 102 126 156
226 412 290 62 87 132
226 413 290 96 119 150
227 412 290 43 78 130
227 412 291 52 83 135
227 413 290 68 97 140
227 413 291 50 84 135
226 414 290 104 128 156
226 415 290 94 119 152
227 414 290 89 112 149
227 415 290 104 126 158
228 408 291 110 130 157
228 409 291 112 132 159
229 409 291 116 133 156
228 410 291 93 116 151
228 411 291 68 95 142
229 410 291 100 119 151
229 411 291 79 101 144
230 410 291 110 126 155
230 411 291 103 120 154
231 411 291 86 102 142
228 408 292 112 132 158
229 408 292 125 141 163
229 409 292 122 137 159
230 408 292 125 140 163
230 409 292 123 137 159
231 408 292 114 130 159
231 409 292 109 123 152
230 410 292 119 132 159
231 410 292 80 96 137
231 411 292 63 80 129
228 412 291 53 83 137
228 413 291 63 91 139
229 412 291 61 87 137
229 413 291 63 90 135
228 414 290 83 106 146
228 414 291 71 97 140
228 415 290 98 118 156
229 414 291 65 92 136
229 415 290 80 102 148
229 415 291 72 96 143
230 412 291 96 114 150
230 413 291 86 106 144
231 412 291 99 113 150
231 413 291 105 120 155
230 414 291 76 97 143
230 415 290 77 97 149
230 415 291 70 92 146
231 414 291 91 108 151
231 415 291 78 96 149
232 400 295 81 106 156
232 401 294 57 85 150
232 401 295 51 82 148
233 400 295 70 99 153
233 401 295 43 74 146
